7.804583168608782, 53.747921820364965, -41.03440490070465
4.284551377935256, 69.03563055297377, 30.06766416822011
-9.634901717995334, 62.67743699917861, 6.247113348786775
-9.470907759522238, 63.20965827006887, 45.35570143967475
-2.929670044335751, 69.56122551932134, -33.709885903575234
-0.6056976837256732, 69.9816396606935, -23.87042936371909
9.403245576479765, 56.59721105144417, -48.054753570984616
-2.5403243110852243, 50.328042990453824, -93.5805543378252
8.103207970651132, 54.140134763974864, -21.055726091642622
9.97502099953567, 60.70636821759081, -63.64886593446798
-8.704897280001132, 55.0781341602367, -18.587545463607782
-9.406902680266306, 63.392665908102146, -10.909843418897912
-5.314685104442695, 68.47078049772362, 20.797756063493008
-7.528859873698234, 53.4184903705748, 12.273865446860997
-4.2152634357868894, 69.06816156488834, -1.1819376715063084
5.426121308991752, 68.39983378050457, -23.716753186447647
-0.06881197415581886, 50.000236757192056, 76.80212164928349
8.796101389897235, 55.24304715824847, -12.560020309235167
4.159592064357779, 69.09383273752776, 105.68261618902812
-8.567572335149762, 65.1571992672357, 28.716252862304408
6.275483371112652, 67.7857760344675, -20.102972229023916
-5.259259155520812, 51.49469617620449, -32.321953237868954
1.478294427019995, 69.89012869415973, -65.04524568529509
9.506635365976704, 56.897761450442445, 43.17402226768311
4.5493994058982015, 51.09477877615536, -52.02380475282696
-1.5720578262798057, 50.12434132876027, 47.84905874345218
9.30952411966205, 56.348594699922984, 48.20059471370821
8.01773098167805, 65.97628562783272, -19.258759005617204
7.197931206117502, 66.941886368416, 26.13976129706544
-3.766455824318577, 50.736425607603906, -38.70847319993406
1.2022632159455324, 69.92746509233774, 29.888372784709794
-1.003616838512689, 69.94951020108296, -54.41444391427689
9.989515780797685, 59.5422069624885, 17.216810305885204
-1.3132006779825744, 69.9134002228976, 57.02820956728504
-4.648606227576928, 68.85383872345398, -66.61238505833724
-9.345053282822018, 56.44050858391014, 119.0359180767334
9.98652371396444, 59.481016271521085, -15.333413075987137
7.3246898799636035, 66.8080039778454, 16.42880848879227
9.81338128322977, 61.92290087886912, -15.381248509847742
-8.345023463786598, 54.48995613548757, -41.05620116644401
1.872000520006153, 50.17678188916195, -83.62059336156138
-9.98305081437244, 59.418023679469876, -0.38592660238500837
9.998450999794061, 59.82399544120349, -72.4227988004834
7.2643838832779775, 53.12768402964683, -34.843303793752035
9.858798150064338, 58.32545557351022, -62.85172887339391
6.739523828345636, 67.38774786840762, -88.64613366980237
-9.99057831851394, 59.56601283240266, 69.13654256975967
6.3243909433349685, 67.74610090276796, -30.40532503647831
2.6994308172164945, 50.371237189386065, -78.23695973016358
-8.18099965930677, 54.24923965249616, -49.24211263608423
-9.477380556784937, 63.190494911745645, 42.69785961640909
-3.020994806681081, 50.46723595288303, 61.823238248658306
-0.43760292409790924, 50.0095794042082, 23.310339103593254
0.7486268287875066, 50.02806147876856, 8.213712510708458
9.965834768501848, 59.174083922592786, 16.40745876411971
-6.79000933320621, 52.65862592868525, -28.26122342222367
5.279123940825075, 51.50701169096486, 56.2147871575623
-8.581856813903492, 65.13339396750904, 56.309413019314114
-8.870618717539289, 64.61650555810796, 21.639212689177832
-5.983379462718192, 68.01243846810209, 102.96428339671071
-8.43483483285686, 54.62844888859609, -64.33578340775347
-9.779675912626765, 62.08756773398802, 4.291309178413181
-8.718847028134494, 55.102887942879974, -45.53088157253784
9.76479787920593, 57.84391039651516, -7.251789254997173
-8.321054842514528, 54.4538259756959, 29.74170797044681
-1.8074176523454293, 50.164694136429205, -19.37854340584819
3.770005209146067, 50.7378695364937, -49.6781426989507
9.028957941571807, 64.2985949436214, -50.33218702743078
-9.763859544042598, 57.83966511757823, -65.44535373246515
-1.9555309419196445, 69.80693115786967, 70.1298036141175
-6.2079231193545805, 52.16024933150403, -13.60357729848867
3.775694508645522, 50.74018731413081, -70.50982101704847
-1.4272569563897615, 69.89762282472094, 30.915048547372088
4.610565208521514, 68.87370770636328, 21.736514503470747
-4.5069818924545935, 68.92676392771124, -83.86783793231481
9.171366376067029, 56.01427060678386, 55.168576044613026
-3.3704980947597676, 69.41486816653429, -36.32629278256968
-8.4454967529394, 65.35477213297541, -33.560025742506674
-3.4159688884706387, 69.3984656488706, 24.724956018963084
9.958158465121569, 60.913827108115996, -45.74095400809605
-4.7797773105693855, 68.78371953453468, 31.112737721326646
4.243997292481287, 50.945250584283876, -7.299978477443207
-9.954794927982384, 60.949767309300654, -67.5334465984294
-4.855953044150079, 51.25816266263152, -8.080730762433811
1.194144631122812, 50.07155507645026, 19.05884101907583
-9.918817523834695, 61.27163631942068, -16.740885385102914
2.72761536201066, 69.62081672400652, -33.51946029296294
-3.6617962425009036, 50.69455813631581, -80.91813933961825
-8.856463937505875, 55.356397247431914, 23.226548367436973
9.202258956037408, 63.913876608431764, 29.20977604537171
-6.628022566694617, 67.48794476845195, 8.514975503323335
9.027888353491061, 64.3008408337092, 61.38249546194404
6.581810812971193, 52.47140342279815, 91.37328650727318
-9.067026798169481, 55.7822962359506, -82.63089956063216
-5.025665479293151, 51.35461472864042, -9.370087561613355
7.146950866848028, 53.00563846324339, -23.03682406216017
5.901015409459454, 68.0732903538348, 30.218454284701863
1.1825952774985156, 50.07017279054473, -30.367688425906714
2.077909093294325, 69.78173265837933, -28.053103333748663
-8.146515180895095, 54.20049222714154, -108.19883112978542
2.985543225922625, 69.54392642711308, -35.39247340349483
-9.979688744209327, 60.637034197435, -10.086291122547077
-9.949081367127704, 58.99214090753104, 4.416461370382658
3.754869577034729, 69.26827677939427, -7.877109980162637
-1.552260255378928, 50.12121019053594, -19.40721736492024
-2.345657646343082, 69.72100253091996, -61.40003771767306
1.9151090840200369, 50.18509515092968, -66.1014166995038
5.892373403291597, 68.07959997005928, 65.94720621403836
-7.970496326389861, 53.96086195628832, -45.774659629341116
-0.780560134016593, 50.030510249908275, 62.635894790479874
8.2158589418994, 65.70084746742198, 47.11345383708451
-5.997227000874438, 68.0020789986092, -19.81267106595898
-9.80688203380192, 58.044222718433126, 31.35023348763574
9.997810648851868, 59.79075796382133, 75.1543979878495
9.924535584437638, 58.773788993186294, -48.102872498450004
-9.999975666101458, 59.97793923440391, 50.98062517029519
-7.488483032790173, 53.37258558202268, -75.77088150786052
2.138160900504928, 50.231260676855385, 5.441501607283956
7.633822443994576, 53.540529828727074, -30.79585347400809
6.869477705060225, 67.26706791351783, 8.78040728163035
0.23532580788174842, 69.99723070475743, 117.50018232023629
-9.565954932725218, 57.08580950775862, -13.9205682178363
0.7641241955458128, 69.97076297049436, 3.1155109716577987
8.150198236411285, 54.20566926149375, -11.201670204567666
-8.15931807365052, 54.2185184794034, 18.428680902464652
2.0144681309451333, 50.20500545434524, -31.68024517726214
9.556561092383822, 57.05515024363963, -0.019778309046272605
-2.0078613669313055, 69.79635099060792, 15.03318494807995
-8.864701136891085, 55.372141558603815, 87.00758013168385
-9.981992585781118, 59.400146670084446, -61.33814992209792
8.716629455200716, 55.098941854994244, 44.32175483636336
0.9242347983704986, 69.95719790088964, 89.76203925527987
9.062371292675445, 64.22769754756557, 62.423300658211055
1.614062282134216, 69.8688805317215, 74.40881671163633
-6.801165816707316, 52.66896026926249, -7.796960759675523
-9.444648989510886, 63.28612316642742, -67.06679097299262
9.694435607930265, 57.54685543766908, -29.948805211745416
-9.873724953844922, 58.415842326086164, 70.12478239831988
-1.4337754100374613, 50.1033193406288, 22.694742420819267
2.2985740058828674, 50.267756808449576, 3.1794783055388782
-9.073849533099681, 55.79699456927942, 63.86313243343397
-9.514910972102074, 63.076762778143866, -28.251211191312503
9.86478436372937, 58.361088941668726, 26.71236502602535
5.02500363032123, 68.64576997816033, -57.04634462344138
7.477345530207193, 66.63997769739406, 30.634241922218074
9.91851547318098, 58.72600988690277, 65.72330074445236
7.691085844520296, 66.39118130960307, -37.94343270699221
7.750196492265671, 53.68062864429753, 35.131556199876634
-9.45569050431719, 56.745784720310326, -89.9970599658004
-9.709568768763084, 57.607454425792376, -16.21047825836703
-7.126494493176912, 67.01520322148397, -7.2926356649326785
9.628934156891912, 62.69881955718426, -20.574226370636627
-9.984708542624801, 60.552806764462325, -55.95407877542492
9.72545873400512, 57.67288753749125, -18.669173904868146
0.06629144780345193, 50.00021973021666, 21.993582543603107
-4.315493537385736, 50.97910672223743, -26.22198165710678
-8.58306995281624, 65.13136533342374, 35.903451734727625
-9.335639197093592, 56.415890517619516, -73.20572177183976
9.577918820861116, 62.87462537750476, 26.270830993681297
-8.523823439349817, 54.77080943407198, -53.218458654005296
-9.172969765900058, 56.01796212048611, -18.15834048497927
0.70085656029364, 69.9754097701244, 34.72476972382738
6.865077702375283, 52.72877533421297, 34.933332769624585
-3.0308097917297045, 69.52964805259646, -58.155673103165114
-9.984404070183338, 59.44172107033636, -74.88496715306943
-9.497043866821826, 56.86852146875283, 21.508597894996058
9.929312295847406, 58.81308916445525, 59.68379160149288
3.0658283999581037, 50.481560200221345, -111.3693149926385
-8.184213920884975, 65.7461850385445, -18.886440304734105
-8.01585590022669, 65.97880039696936, -7.506616247112609
9.946067482927086, 58.96282035063329, 46.03207647477627
-9.914186320773226, 58.692747309433614, -57.380752866988175
9.895204395011532, 58.55607133800023, -17.59554866633244
-9.926022110763434, 58.78588095450427, 68.1531989386792
-9.957504667656536, 60.92092388045826, -27.79301467967726
3.8181360676513396, 69.24239346538006, -64.19297488336974
8.344856289601026, 54.489702956654135, -68.17259479137162
8.977590346464533, 55.59513092463955, 20.111811625586295
9.882428825902673, 58.47107864788017, 37.65458203059053
-9.99998404295551, 60.017864507695045, 99.57813692617003
8.595313777592654, 54.88917021759422, 57.25903169998892
-8.656617668074801, 65.00629309457358, -18.480030423668005
-8.021488049114087, 54.02875812934027, -54.89319902854304
-9.279269321996216, 56.27237866061212, -47.199982123081675
-8.587121187523232, 65.12458288163921, -112.66308195727919
-6.001998697575419, 67.99850058662891, -2.43652813752838
-9.952966388434985, 60.96874148805728, -27.217568265819953
9.711557929630224, 62.38445855058047, -85.39360369974493
-0.5407304019385875, 69.98536982952656, 7.257080343504206
-0.025996488984638726, 50.000033790929066, 20.847285666069283
-9.27853135952377, 63.72945784402157, -9.485231986781875
9.717028106398534, 57.63793209677179, -3.5177728829953168
-8.779197602619506, 55.211922154542606, 22.748631378330877
9.728259397536341, 62.315376663578924, 51.996285371578324
-9.985449557986097, 59.46074391527287, -63.19437701825321
-4.452367269308776, 68.95412897490246, 9.16414668612921
-9.931767697717943, 61.16618626238112, -10.122050058059687
-4.684082711247241, 68.83512134349013, 1.620783629410424
-8.398980036076034, 65.42744270845822, -4.136751004360609
-9.77459054483103, 57.888749261480335, -13.320182837327263
8.375496349393416, 54.53638755938, -8.246257098015008
2.5752197703706465, 69.66272441572728, 30.96138426065832
-9.745615917289708, 57.75880157222314, 25.478930297303265
5.032729813523311, 68.64127482632473, -41.527752090889
-8.669931248951093, 55.01679900681687, 35.75184348482631
7.377101613382317, 66.75117558546896, 11.080172205969616
6.437781507813634, 67.6521218794301, -12.343251077616012
-9.927168196979089, 58.79528775681205, -45.47715431836393
3.2748611273074597, 50.551440078146804, 75.87620057125105
7.11343865359868, 67.02844154286626, -11.345739521567626
9.812712301823963, 61.92631183395437, -17.10580303772202
3.882175129798458, 50.784322257067885, -29.77310704444417
-4.057134009427176, 69.14000348082809, 45.61602236419125
-9.96915219691184, 60.78485952552532, 52.91180985108779
-1.4969010650626196, 50.11267037054927, -88.84169296427675
-8.41451730945711, 54.596677091932534, 16.745237938216764
1.4767833345230597, 69.89035444172123, -46.23097168075542
-8.462253810334564, 54.67174883761302, 71.78246193152624
9.819780399406886, 58.1100494960385, 105.60370186053727
-3.957827025554796, 69.18344190572293, -14.064166481628915
7.0998653889422805, 52.95784752657971, -4.404796242098852
-9.356749120334563, 56.47136770134399, 50.597334232918634
0.003329783210837003, 69.99999944562717, 115.66750428031634
8.22159294212311, 65.69257494408562, -6.133603374829788
1.952579096517781, 50.19248069735053, 72.93163387702593
-2.5003666415699524, 50.31763630833234, -32.461401097245925
-3.3844435644274657, 69.40986406698872, -0.9777521818390561
-7.805791178471756, 66.2505699002645, -42.20896162179976
6.177310544459758, 52.13610564431933, 27.961958865467444
-5.990797527761735, 68.00689359123524, -70.25443849715361
-1.5199789656844218, 69.8838081701274, 2.993240466650636
-6.981108051059901, 52.84010262787052, -48.20513838205084
9.702410875223137, 62.4214093434097, -19.096157591889728
-9.782235071779136, 57.924457420226155, 40.76127376325791
-8.202314321934326, 54.27968184764247, 65.42511048649243
-3.9308465747215937, 50.80497715032749, -77.6833008724403
-5.78759364998295, 68.15498373650598, 50.89989331636
-0.028113949986446465, 50.00003951978728, -18.58343363383583
9.808178477397638, 61.949265234777904, 47.22716150628653
-1.6923336011001728, 69.85576009157018, 107.63006825085186
-7.07729793738566, 67.06483219230837, -11.147113896207248
-9.99157421374519, 60.410420188614275, -13.636397547955426
-9.814395925262465, 58.08228453043953, 4.2093401856167585
-4.179626080220568, 69.08464230608669, 36.01849786533843
9.969070976579014, 59.21410950894545, 8.542301503843525
-7.969815342991572, 53.95996329492807, -43.427943821725876
8.81569264756022, 55.27945308849148, -19.039970053336127
4.3597378725481475, 68.99959363986338, 8.709823366253604
3.879691823507549, 69.2167234608948, 11.124105213509607
9.105055892531015, 64.13496761702994, 0.8671744078285301
-8.854220370794442, 64.64787926106183, -46.185390744214054
-3.5672637564539196, 50.657910871122546, 45.514399011182824
-0.03474032441093679, 69.99993965531091, 33.15886716448504
-8.60788891209566, 65.08962164379835, -68.50128225967596
-5.643886514599511, 68.2550920655267, 138.10152202462447
7.4369386880409465, 53.314796715856744, -78.25755183847342
9.548073924574666, 57.027747599738994, -18.80233921166625
-8.685927063030274, 64.95526700145595, 0.4903181663745446
2.9017561940859515, 69.56973411282068, 8.705612155053991
-9.924418372883801, 58.77284069495177, -15.65888273965595
9.955615421008448, 59.05887217181789, -32.13105145906236
-8.62603222684893, 65.05881092959243, -21.339674377463226
9.657273254720504, 57.40441272856025, 45.86899945731472
7.80915619755903, 53.75363469831252, 6.827294801950281
-7.8109801034973, 66.24408438626267, -30.52257138047449
6.203160979694387, 52.1564807732755, 67.00961547801587
-5.51911221530757, 68.33902874169665, -25.421086533382443
-2.774871311565088, 50.3927064578908, 81.38454020708039
-9.226318238275836, 63.85681886611994, 65.12567390990422
9.92531169376497, 61.219913022150486, -13.790567706776766
-5.90956337414899, 68.06703543607668, -21.782748055222303
-9.348222233985574, 56.4488394764503, -27.289526411066777
7.9376619270620346, 66.08223011169997, -9.592922475432466
4.919523672494126, 68.7062211570675, -45.47954653266716
-5.9735020411662765, 68.01980507021102, -29.94394913078054
-7.565371104470358, 53.46049236932589, -63.84086307889142
7.330780489947778, 53.19855475592128, -37.03131409791374
-4.05603680964672, 69.14049043535361, -34.698082054505576
8.645396031019612, 54.97435303002386, 12.919826094035539
4.508212517145751, 51.07385750168359, 97.50343689498918
-1.2904476231709476, 50.08361230427872, 51.70878663384559
4.883242284118255, 51.273377240043004, 88.47066819088917
-9.55717513784545, 57.05714366906082, -2.1917091989300834
0.004076291517004111, 50.000000830807664, -11.745810406014972
1.640893712035637, 50.13554523423611, 26.91943059139785
-6.861603848725622, 52.72549708755617, -5.695777986636355
-3.102490638050793, 69.50655309987837, -57.45130370338059
-9.991644598850723, 59.59129691675106, 31.00595353502758
-9.841961821303952, 58.22918450763627, -3.4210443298851603
7.463567503430025, 66.6554609248153, -112.6391690495041
-7.4013554159440265, 53.27542283806067, 15.827691656066914
9.999915675768595, 59.95893325533296, -12.19306127564244
7.350011713343778, 53.21934163862319, -46.9181908741996
0.8310530700432499, 69.9654077084067, -24.11061420431394
-4.418555194857734, 51.029137723161966, 72.56426192151133
9.981240942071198, 60.61223300819351, -20.510693519687567
-5.800502889259373, 51.85419333450065, -18.12589183319895
-9.844188461976485, 61.758395156126475, -38.595262103287624
-7.212020729826664, 53.07275256739371, -30.044026192247053
-7.699707803899278, 53.61920853384374, -37.17279147801316
2.799521391841327, 69.60013958110103, 94.52150433302994
7.055125118798003, 52.91302535928726, -6.491440040214286
9.854604731517316, 61.69904843531799, -43.59953137691325
-6.16262408464685, 67.87540883963052, -12.138434888415308
-8.365039004048212, 54.520390300326845, 51.600984273130145
-2.1053050615622046, 50.22412711837145, -22.73027497412859
5.032488988074018, 68.64141508000361, 25.215628521300772
-3.4417157804356058, 69.38906771126402, 21.073869241542088
4.069024883564571, 69.13471600526981, 34.167346361151985
9.754574018569146, 62.20188231208113, -11.22697878908884
1.2900641796427816, 50.08356241322507, -58.06011037921952
7.561459076935942, 66.54403061024496, -72.50155941274811
0.9840687747648602, 69.95146263855383, -9.644246467827116
-0.43091866625914027, 69.9907111410084, -34.220278006926485
-6.07681308039573, 52.058190207142246, -57.36119221615319
9.765282165120535, 62.15389513105415, 4.070247585259201
-3.639744878348619, 69.31408917825757, 46.15552237019178
-9.984943179473715, 59.45144762995559, -21.145876022715786
-6.060571000424101, 67.95421140961305, 21.94537405406582
5.538620046213401, 68.32608479320761, -76.80930517448388
-8.566324702363344, 65.15927137236253, 57.470822973229744
-0.064396832269397, 69.99979265024999, 34.75468488668631
-9.99991916144941, 60.040209009897495, -24.521342010239135
-4.131238635915747, 69.10674845008452, 38.510118048791156
2.0638153733360514, 50.215284055999284, 11.661129120358071
9.353170835176146, 56.4618938218292, 15.79536309211721
6.480530198358806, 67.61595222858965, 47.328874438388965
-9.993847115661499, 60.350741826397055, -0.30578515852512644
-9.024756671331126, 55.69259161173864, 0.2776230692953384
7.571811319705619, 53.46795029575112, 27.167346651048884
5.728852039232071, 68.19635616067204, -50.4077997207016
3.50524895443523, 50.634465857868506, 2.0144645692484935
-9.646658889250908, 62.634762280441336, -4.3796704325399585
-9.373985339001555, 56.51741491644728, 39.72218407478631
4.904208642821056, 51.28514270985008, -2.0466336481060274
-9.176489319480636, 56.02607954666204, -60.57645283911219
3.13815838038439, 69.4948387021383, -50.54677067550437
-9.088570237027055, 64.17107792382568, 11.504840464776473
1.728477311128578, 50.15051442029008, 4.646747875057458
6.5206002367775975, 52.41832653353259, 26.89336914957961
7.195545470941362, 53.05564075125608, 47.068055621120045
9.431890965249996, 63.32256419345594, 14.226642172158096
-3.0628425758652833, 69.5194009977239, 39.32369528343402
-9.645919741473177, 57.36253296872586, -47.822956728037305
-7.894171419241951, 66.13857129987292, 56.186859819441935
6.172744194092124, 67.86747920965172, -5.7270115496662
-8.13570794815907, 65.81465873308669, -50.70189942743358
-1.6579760007743012, 50.138401976309495, 105.62478524366922
9.810179033940917, 58.06082818656364, 20.751348947241162
-5.107311064435355, 51.402594944339526, 4.442738168308193
9.899874136016882, 61.411556619843495, 62.803943665587646
-9.995566093372686, 60.297755727095755, -35.75421244645645
-9.998143479597665, 59.80731642161644, 17.246511583480295
-7.935579581155167, 66.08494673034639, -16.80376709051461
6.237489941488565, 67.81624713208512, 66.37130999006307
-7.236826256353982, 53.09867072692908, -16.277919350510277
7.852436463638761, 66.1918689896118, 19.83493485834159
-4.4351785902070615, 68.9626553472154, -1.6640929835429263
-8.268826420678103, 54.37625483999357, 38.621116891906496
3.5885986686740914, 69.33391448403029, 23.375681920308732
-5.4138716137321055, 68.40773418645153, 46.62030573031326
4.0589559414486605, 69.13919453044844, 33.86289235912573
3.4139078673920564, 69.39921449233704, -32.021684844901245
-1.118605542957388, 69.9372391356586, 23.222529255172734
-8.282300839380628, 65.60388194076168, -89.16044144211433
3.4604030268814916, 50.61780351455218, -25.2185824997202
0.5467447700942047, 69.985042321211, -14.02682176783025
-9.784976936571542, 57.93742240127481, 156.32987230049937
2.9120750158200814, 69.5665991398321, 25.638472921350164
-4.836329745120194, 51.247291013836595, -64.89832602253897
-9.8161114777539, 61.90891473259235, 10.860065938925102
-5.704547490773737, 68.21329032273346, 40.34766806943978
-5.117722595081728, 51.40878847660064, 35.668305932618544
-6.195108526106051, 52.15011908690532, 67.44369692523946
9.66085955546776, 57.41779306609108, -1.428076941147969
-9.885080095825591, 58.48831501326741, -49.554473055790645
9.35198246735838, 56.4587539014887, 34.06751931580107
-8.898637255561786, 64.56226423981863, -6.186772781566259
-5.825713090302738, 51.87220405094497, 32.471329055030296
5.725375092163492, 68.19878527917605, 7.936272133962488
2.0464613891747456, 50.21163978070806, 45.570779142956724
9.302628864600717, 63.668936658965045, -24.70013671061939
5.615241968931038, 68.27460317056688, 10.721821976123927
2.245655324222434, 69.74458989207814, -63.70289829900621
8.00033973905205, 65.99954698787705, -53.2588527056811
-3.385766127968765, 69.40938827590293, -16.829551964493554
-2.163342326468292, 69.76319363622943, -9.338507262484418
3.4378254085518956, 69.39049287632524, -39.310873991729366
-1.9619542618549215, 50.19435185852616, -13.454115941259074
8.71331450349675, 55.09305080899005, 73.95865641034138
1.2445172961749393, 50.07774336657626, -3.2394802708171055
5.235244102447563, 51.47989324082215, 31.591446565365167
-3.710333725474219, 69.28619532669913, -72.22265738712733
-5.471541125111762, 51.62968114608465, 5.079228602561085
-7.060477684030392, 52.918357897118156, 36.30630273172257
-5.481833973998445, 68.36358154629441, -4.9394765512787275
9.977795898629715, 59.33397522171615, 83.62978151164143
4.757876644181003, 51.20439826738631, 1.6401011481909529
-3.6665363753719813, 69.30357517345209, -52.63404486617169
-7.131808043158899, 67.00980128359814, -8.129738607694652
5.344339388473647, 68.45210248996125, -25.18315572904542
2.471897564930916, 50.31032908564545, -31.330656513567806
-1.752787508657372, 69.84518846693626, 40.48746303531742
-1.5761161890099054, 50.124988214754325, -69.01442035768561
5.63582707688896, 51.7394035833116, -10.802340034068502
-7.766222164598295, 53.700333874711916, 18.874518587661512
-9.783551288376628, 57.93067059468435, -33.422235253549246
6.33765526796831, 67.73525214226359, -13.188114699930345
-8.0394797967228, 54.05300373313671, 17.454384240033608
9.30359678876145, 56.333518472411505, 28.729042151906942
9.737555048331641, 62.27596609832198, 113.02697104315169
-0.17914000110066305, 69.99839531424946, -12.275827000348736
1.4885917299891502, 50.11141594254224, 41.759094281709395
-1.1210862431779174, 50.0630404229786, -33.63549765728723
-4.877144321277731, 68.73003226050331, -7.667522666479989
1.7105066417133032, 50.14737765726024, 63.08899991356566
8.989041366067607, 55.618546437639054, 73.4960110274197
6.722936783469603, 67.40284546681013, 58.62795608166036
-1.801812318719048, 50.163665704739785, -22.645212141191784
7.239512794998522, 53.10148896564971, 103.75150464136227
4.914294736568303, 51.290826259504456, 65.86123000822973
4.331197159452216, 69.01336403158959, 29.28004179521831
-9.046452213121219, 64.26165488463275, 64.21818594588309
-9.980892108332116, 60.61789377876275, -50.857276401948916
9.709397598318514, 57.60675987879054, 3.3382483783353796
-4.5060417922031695, 51.072761492660874, -100.85115711946663
0.6757797343991694, 50.02286004154621, -35.64933235247062
-1.5832543278100817, 50.12613015411533, -52.581378129055004
-3.003490594660118, 69.53829357106333, 2.1569872273381323
9.930298596571088, 58.82136953079505, 23.093400221779127
3.785675251795451, 50.744263244455176, -65.4819944266702
-5.626365717793822, 51.73295646499703, 16.98659289375253
2.0983311374589038, 50.22262783578479, 5.29167521722195
-9.785483185122018, 57.939825533190394, 96.5571990794905
-3.8118633445806562, 50.75501769378425, -2.877960616159225
9.944472906167677, 58.94764140213662, -11.777048299436771
0.2126139616425313, 69.99773950967491, -1.125487444806249
-0.879132773407379, 50.03871867846706, 88.294853726265
8.880064121849514, 64.59831068892055, 3.7861565496875746
-9.48577923910377, 56.8345628695253, 22.456532360362406
-7.086127640826675, 67.05597584023019, -12.091762970116312
-3.3108154248498174, 50.56397852786586, 70.51370770793706
-8.976260872744101, 55.592422349584375, -81.6856935770421
-8.568336446449731, 54.8440703514845, -23.52661601038857
-2.8907146257143888, 69.57307520876552, -22.656671598022605
-0.7492272875345085, 50.02810657539835, 4.173699598510814
4.808111331657, 68.76824186609788, 9.031838317799336
1.003972658118758, 50.050525697216464, -60.98719644545053
-5.4789689469533895, 68.365458701011, -66.68422167531463
5.88555157548908, 51.915429346449, -24.089153015702276
-9.564938820163277, 62.917523841639266, -0.42904018387987947
5.875049026876158, 51.90779393911639, 106.11713234407331
-2.2429167351879755, 69.74522059878655, 52.00101387872831
-8.463733021866922, 54.67409882418389, -35.89039414985237
-4.91053097704467, 51.28870356815447, 40.259569806784796
5.67862826759313, 51.768767953793784, -12.208071522915692
9.538900989303269, 63.00156091330313, 9.30856100805003
1.0003018738715037, 69.94984402697496, 53.88301523598808
9.970021053751672, 60.773744265082726, -47.46506551592396
-5.101278127929873, 68.6009860749512, 37.43367095638876
9.702749148956219, 57.57994649802337, -28.30751825854251
9.732946108861547, 62.295595792380894, -95.1018155427797
-6.683997805900375, 67.43802213835903, -13.823146668702208
-2.559882720975015, 69.66679887319756, 4.741605172783462
-6.619133178934938, 67.49580389014565, 52.80175161205843
9.600632614551229, 62.79783012358064, -54.06535092092749
6.362034705134665, 52.28478682014151, -51.68743146234428
-6.534950610802037, 52.43069220374954, 4.70042477198111
8.367461406708767, 54.524090065821085, 62.16300041918411
9.817763385050377, 61.90040051440852, -4.94750309914898
3.9799208004089017, 69.17388851155673, 15.347735927150296
-6.9933667588573245, 67.14792427045148, 13.919068515477715
5.434171001616658, 68.39462837326279, 20.58343172952102
-0.05550812631345642, 50.00015405879105, -86.75663599487298
4.308907711381571, 50.97595909058495, -7.130978811371434
2.5470027023923154, 69.67020047537828, -6.21095926672179
-9.273144005727268, 63.74283318477386, -49.16926331266463
8.872243159436659, 64.61338284990845, 27.235975967722307
-1.6813972079081687, 50.14236826467743, 97.62821843803096
4.341093682828509, 69.00860175814796, 32.806753627683946
9.68587174988459, 62.48674253689191, -30.317499179712353
-9.993278452474947, 60.366586649102146, 8.55169459053033
9.974273458011075, 59.283153444023206, -25.58698549436827
-6.76316791857599, 67.36610885781255, -37.78788758391443
1.10131582318735, 50.06082984059549, 25.615975703474092
9.07488132305687, 64.200777186716, -47.521318080258915
9.719259549055774, 57.647130726519606, 4.30044983070213
6.3837517111404285, 67.69725367196065, -41.88373405737095
1.7003519182247897, 69.8543799071372, -77.94844137267863
3.219077000208847, 69.46771056099237, -42.96627100735665
8.194016398762145, 54.267801882626785, -80.74547217283148
-9.846943921177814, 61.742898566520516, 24.773672958115288
-9.97738583409607, 60.67213980508453, -27.983911689393615
-0.3774954657752188, 50.00712768152624, 30.32994907488123
-9.127795776144621, 64.08452497470591, 3.0354311295159992
-9.990666236595269, 59.568041496257635, 19.0716951655957
0.0467642488124405, 69.99989065465383, -74.63380891083473
-7.374172265805922, 53.24562487018831, 66.52668445562037
-9.540521549579543, 57.00359405920887, 61.293150835880624
-4.219823051996711, 50.93395933111719, 19.89225231925805
-9.71674831433978, 57.63678139060834, -27.203918969609937
-0.6344746989222947, 50.02014820468623, 4.3348263767271975
9.99850402892921, 59.82703415514508, -40.650574836885795
9.979780944710381, 60.63558814935111, -81.14889349614785
-7.1179843581709035, 52.97616211200498, -94.1326286837123
0.28654923503380936, 69.99589363368287, 4.173377951674501
-6.742338610317084, 67.38517908136475, 60.93880516145018
-9.638183648308065, 62.665598612223356, -115.3173826546451
-9.83757936371796, 61.79500202299344, 51.82574720442395
-7.992544761988444, 66.00992747274134, -30.573663019811963
-9.920787870052564, 61.25617197764396, 0.8721885060083404
-3.6040912735626884, 69.32794329377218, -54.57732126172271
-9.952511474865608, 59.02659600233592, 15.512936608185987
-6.4973244000023564, 52.39837019836312, -52.15429741148595
-7.110562308662033, 67.03135148137503, 45.99690017877332
9.512027175414323, 63.08566670497308, 5.774388493476676
-2.664859317756406, 50.36161191813865, -84.07101949902798
-2.195202135030297, 69.75607951927199, 82.6951004175727
9.997577841160043, 60.22008477899595, -14.857956909437053
-9.946576041009894, 61.03229117036228, 116.08593821516988
-2.1905071797580193, 69.75713473799703, 36.78578489680646
-4.3288329769099345, 69.01449971202047, -17.712132863439297
7.831108484549868, 53.78117857603138, 16.669092936838055
3.2659979528892915, 50.5483727659348, 14.791110344214006
-8.547560798382033, 54.809700933668395, 57.21377155311716
1.98954206369552, 50.19991212402735, 26.426850971739217
-9.858464204440477, 58.32349067113665, -1.4153137998519538
9.216338675243438, 63.88060580621274, -73.75072969452259
3.605975382372711, 50.672784898924974, 6.427270759321113
-0.18040048172873469, 69.99837265089634, -25.72561544011866
-8.494266051409445, 54.722932230123156, -122.25750941070687
0.3540315892182277, 69.99373111674691, -6.024876253204158
-1.6707379643779487, 50.1405560676889, 58.04651001916811
9.313207756239388, 63.64199962783119, 25.27456422785378
-6.667518064850727, 67.45279832377673, -57.156338956081875
9.277212987339396, 63.73273615295017, -68.14781718003434
9.996553314426265, 59.73747032199524, -56.494717225870126
8.284069902526406, 65.60126645054993, -2.1643014259833877
2.5601666188401135, 50.333276310777435, 4.396995760235108
-6.352844993203237, 52.27721808592703, -107.70101298947017
6.844720622198572, 67.29039090886418, -46.3050183566927
-9.514230628807645, 56.92113404938466, 45.77358348887529
-7.359665345536474, 53.22982082942338, -39.062019908953495
-5.38415425275244, 68.4267955346364, 88.03014062286914
-8.76259557975392, 64.81839378897959, 31.433494666655065
1.2858896071946564, 50.083020221957256, 30.6908293306961
9.071397636506225, 64.20829477584321, 146.17933237944615
-1.5862946159471656, 50.12661813807361, 12.775001193524608
-9.573105471148203, 62.89061440497905, -28.95866338842763
-1.5835516719394578, 69.87382216278468, 12.54427585605778
-9.950879600480494, 60.98994705754458, 32.228083226557125
-5.603368747163987, 68.28264804777469, 45.91946953599157
9.567979009073651, 57.09246192081239, 26.134396681651463
3.1394606605439686, 69.49440818381518, 73.55799002148322
-1.3882589105264798, 50.0968319615719, -2.541861343566364
6.315827393168134, 52.24691517267436, 103.49612478038009
-9.75012448593866, 62.22150230895657, -51.661746410563715
9.701398444692005, 57.57453752506299, 2.518033634795637
2.3502556197815916, 69.71989189866251, 66.26781388842818
9.833421047253662, 61.81764421915531, -48.59894214039745
-0.10416158641748836, 50.00054249651937, 28.43943956275816
8.732532076063155, 55.127333015634235, 38.61152673216443
8.409286213371045, 65.41146055899955, 72.83741359366374
-7.597446131997265, 53.49778404915679, 31.10435499373026
3.536388171126868, 69.35382054045907, -32.61641418258221
-4.127494846179767, 50.89155412297139, -58.63406753815199
-2.622923796678393, 69.64988449448066, 5.41483305479691
-9.589142434021344, 62.83696094087515, 30.69100115813076
8.559181497368257, 54.82888676442791, 3.3570608462105724
0.44008823453546286, 50.0096885761342, -44.43680595366652
-9.977615792550322, 59.3312824989202, 20.07385927373165
9.95888750504748, 59.09415251735782, -0.949426209243988
-1.5503155147678571, 50.12090480840122, -55.14646353786456
-9.915322793123682, 61.29860460039305, 57.06109676126769
-7.397526807216047, 53.271211317293435, 108.23779124176383
-0.555457824566061, 69.98456141275761, -28.907933662448947
4.346721876099569, 50.994112540574505, 34.66617034852345
-0.9409525605477589, 69.95563198791511, -36.62222015853469
9.168890072366036, 56.008577341239395, -45.35964654194884
8.520702529513077, 65.23427439131247, 116.10559807952798
-8.762599942750713, 55.181614145452315, -77.55422906014425
4.563929176519649, 51.10221654164855, 18.077072887603553
-9.075661797120928, 55.80090927172564, -32.148703157010225
8.86470693154014, 55.37215265831897, -27.654158406486744
-4.630649985901228, 68.86324323868374, 29.388888322406824
-2.6895218027086196, 50.36846468766505, 51.02026467655302
-8.929026899629767, 55.49750306766478, 41.779578049637514
-2.11050374517519, 50.22524813912898, 18.688945706441803
-7.071580403615297, 67.07055518295445, -74.70412381821636
-8.738375015140598, 55.13781920381743, -36.74601583481156
-1.2753940911282646, 50.08166496269081, -20.950312066015815
9.796076513143984, 57.99079992319609, -3.3581462279495446
9.999794213404625, 59.935846359733894, 8.462682064591638
5.7432367269663045, 68.18628315525584, -32.669496584839095
6.880666148404742, 67.25647527069424, 5.161164739735662
3.567163858330058, 69.34212727422528, -50.023375782092415
-9.422556365603176, 63.348944839353294, 80.55464817959303
9.994763485109065, 59.676421761036856, 8.244011828015447
-3.06346710362958, 50.480799965071675, -51.705773195406
4.1720928904820545, 50.911895636977476, 9.76680691883172
9.302586999373922, 63.669042806929255, 17.978322253107766
8.35633049739273, 65.49288090334609, 2.523515647836896
-4.141600337441563, 50.897959204392464, 42.456213773663606
1.4429809722728912, 50.104657362493285, -1.468574604419643
-2.3801029326069614, 50.28737368009065, 18.175970221058908
-7.892463408670802, 53.85923283760144, -35.805745529066755
-5.063787803366654, 68.6231115661619, -22.284503197931823
0.8184712174885327, 50.03355104030815, 32.21970235724577
-0.1835812422580848, 69.9983147543719, -64.00346161386001
-7.772893415512866, 66.29143290126159, -21.358960974664182
1.8856495398582716, 50.17939279815997, -39.52168634464245
-9.549443248383131, 57.03214999605609, -11.846345985057754
2.283983712786024, 50.264322396477574, 52.77192796582803
9.837506275688572, 61.795402538649185, -64.72791279541103
-9.284312799387072, 56.284958164012494, -85.43750194689423
-9.829946956378903, 58.16366047943819, 61.76689753745204
-0.2945796372265145, 69.99566020017345, -66.01514673921311
-9.64400796199981, 62.64444898398216, -23.961581118680613
-9.650757392986131, 62.61971024003105, -13.945411042130415
-8.270171895103275, 54.3782336560967, 70.02496695802863
-9.314523390466992, 63.638633535881745, 13.926954237695405
8.916358581478539, 55.47246759851528, 157.99558870520622
0.0780976175240342, 69.99969503345662, 12.209152746642378
7.872742593542314, 66.16602984551848, 34.84749061418552
5.195157562421958, 51.455391296167505, 62.073726011949745
6.386255164444183, 52.30482326553769, 41.79048288107127
-8.62148579044232, 65.06655531551775, 33.077529625490385
2.6969747324879374, 50.37054896204765, -8.653924251899314
-9.503206211746326, 56.88727262725659, -41.327791801445755
-4.457055640483317, 68.9517961894603, -31.74121653488364
8.912119391373215, 64.5358712452967, 65.3218063990516
-7.561035636147824, 53.455480146802, 12.032062518100817
-3.9388639998941284, 69.19159128716774, -8.89580516296785
-5.009048020359989, 51.3449761450515, -22.595922688964816
-9.813995302002358, 58.0802353758141, 52.309607588991966
5.748941408650094, 68.18227796398462, -82.49915614250436
-3.087084310913669, 50.488432807506925, 25.948659269214662
-1.1715916682353993, 69.93113150466357, 32.84251892641584
8.178891191394733, 54.24624132593957, -21.349393241201717
7.8469015323692375, 66.198881862183, -71.86185719658145
-3.8153796811746195, 69.24353167834026, -32.64738475385936
-1.4968584200928512, 69.8873360856298, -89.28818135280268
9.434338313169391, 56.68439136919567, 96.06061177981023
2.6612560816404867, 50.36061640622537, 71.23584160285942
1.8326545897058488, 69.83063462625023, -3.3346360917939917
-9.837250667591304, 61.79680252197465, 0.8575406261229471
-6.846709048715094, 67.28852352690467, -15.010245364249808
-6.069274550349926, 52.052427639053874, 59.35765029702349
4.872856580355717, 68.73242628066701, -30.835533277547704
9.892874886055253, 61.459803578861646, 2.6770382506978185
-1.174151717789344, 50.06917084309612, 33.87509148147626
7.618465271278688, 66.47757569699657, -11.18365197126447
9.873993455313183, 61.582483252496665, 28.875755391969115
-4.7092384651204195, 51.1782613347124, -112.6777265295285
6.300183579577369, 52.23419760336231, -41.23632131386364
9.330445619798493, 56.40239183123243, -49.73900299448191
-5.66206657058422, 68.242633204885, -2.2484573424069523
2.386700842474868, 69.71100710990007, -13.676487405789656
8.446339058356306, 65.35344342561726, 0.28300704901727186
-6.399332851523788, 67.68430472166536, 45.97099322625044
9.99804961482496, 59.802505950726506, 24.392974835738165
9.82017830553101, 58.11211810550075, 60.27495972102345
2.154237983126671, 50.23479346290851, 7.480983506520598
-9.997991884631181, 60.20039529647429, 45.104541725964225
-5.663404507786875, 68.2417139832185, 7.431247822055329
-8.414459046422206, 65.40341363918066, -137.71209244763335
8.486500443555398, 54.710452739455484, 51.70894327338327
-4.6974550084210955, 68.8280188289253, 16.172849890610763
-9.991129640929962, 59.578896095802094, 45.79816466228003
-4.4863332840280945, 68.93715914956323, 17.532712678769787
-0.5611509656720062, 50.015756934362756, 53.27027829383988
6.405296744584953, 52.320665809211754, 44.90223744510009
-4.588819601452832, 51.11502759344058, -75.4726176055586
-7.608236972267428, 53.51041371319997, -11.712753474982811
9.989237332905669, 59.53617082143999, -69.4298683706829
-9.292381036706463, 63.69481456485412, -26.02831438935275
-8.518129230825558, 65.23846107239093, -40.03565380052871
1.679281011301799, 69.85799245714264, -76.22675288911607
-3.6105068632850923, 50.674538070949446, 49.47668934693876
-9.812816130798739, 61.92578284942411, -71.98105864493468
-6.37198446499877, 67.70699772789732, 4.3401574553654285
-7.9742068858352555, 53.965762306479995, -31.931671626767645
5.071892481365361, 51.38165290456055, -18.33834497611458
-6.654444717961921, 67.46447355783305, 51.7531575950676
4.530613288944412, 68.91479350439708, 54.51352456426572
-9.996944148977313, 59.75280031911782, -30.557369878281694
6.764458561681134, 67.36492364979426, -40.445159123294026
-9.995019621948448, 59.68443264290246, 87.9119486806731
9.08952551607469, 64.16899578947103, 33.22411227461235
-2.683691839159153, 50.36683862315021, -24.58946270909638
-5.83903774891592, 68.11822875797023, -30.77038863329063
1.5977943458073498, 69.87152740099049, 22.213936677260072
-9.602795963579256, 62.79039597223512, -21.7466292109873
5.7377840733273064, 51.809894144281685, -72.55409790139662
9.971711161945898, 59.24835081139963, -85.45848252753595
2.819138581362589, 50.40560279855619, 18.310219469194678
9.95311223030925, 60.96724191951571, 16.958920082437416
-9.984002237041732, 59.43458039409151, 56.98673185097407
9.051181233478, 64.2516018485667, -13.16589113194808
9.646260974883155, 57.36378126771577, -27.468562366739263
8.0711736868094, 65.90391017185692, -19.03275952914538
-2.396303899096466, 69.70864190415813, -18.675533528577102
-5.59756559167525, 68.28657103070343, 143.65234298652214
6.439333950453281, 52.34918446997055, -18.465928888850524
9.967779124767612, 60.80210929420312, 30.457295326233425
-1.3963994004209546, 50.097976534338855, -30.512050223768306
-8.354289858736456, 54.50401592467617, 23.50157032687818
9.875567014116005, 58.42736649224814, 101.57244367706848
-9.824074848484534, 58.13250077071673, 16.894932990088634
7.133597842292664, 52.9920201324178, 18.61582506558812
9.61379183893669, 57.24772703432339, 19.069966517387066
1.1869616516505446, 50.07069377864138, -45.53455946521124
-0.6511997217692271, 50.02122558014424, -61.90855591947051
-1.6643046536878656, 50.13946806608726, 21.059616287947513
8.032959069012422, 65.95580125554665, 24.018802761817945
-9.227774922024155, 56.14666767739115, 79.48283530657724
8.427691204550856, 65.38275217344587, 19.277736356655055
9.435146407618543, 63.313308356733934, -15.388712564332247
-4.434555329459249, 68.96296374141748, -22.629842256809198
0.3773252280631032, 50.00712125199814, -26.129243626909908
-5.535056618630811, 51.67154586801661, -59.54175252785697
-2.8768528298368796, 50.42274998783787, -71.38634644079498
-8.448382227629004, 54.649781524471884, -38.41550558797257
6.955525083017118, 52.81524733762395, -11.27726285394
-2.4038421654840945, 50.293221809300434, 8.114408040020491
-5.867518749072241, 68.09766779568572, -5.061388338230956
4.193874448860949, 50.92192657513769, 0.48576227699220703
2.254692318467321, 69.74250288935264, -59.758256119989525
1.6117074894084609, 69.8692653712718, -40.436242980300804
2.5307921141396013, 50.32554439386852, 29.227460889373425
-7.043923012715422, 67.09810880382501, 116.22505388969489
-9.729820490973994, 57.69119225282342, -122.03755900628363
-9.992407284475492, 59.61038909003837, -46.78185793489938
-6.187895971391304, 52.144432328135714, -2.743742638384145
5.514008701435715, 51.657595787754516, -23.020918315084323
-2.702937231701095, 69.62777909600568, -9.37000072792791
9.995802515938081, 60.28971030766257, 90.79382951039257
-0.01699944202520429, 50.000014449061894, -15.707463842137292
6.163173147362881, 52.125020840940266, 31.69817343555398
9.989981233741906, 59.55247910720888, 14.455639150329642
-9.321746274186765, 56.3799107193765, -18.90990274154858
-4.585557127046532, 68.8866566173445, 78.86734465666048
-3.105189934601011, 69.50567175269862, 55.5480153576717
5.347593211773831, 51.54995580831731, 54.375356946386546
-5.6370822698164265, 68.25973991620324, 15.475357589315466
-1.9422515101353797, 69.80956976994287, -76.39551208851411
5.62647381844171, 51.73303003692465, -73.18133774693841
7.223060185362835, 53.08426420699676, 70.24137873809514
3.3756963943846556, 69.4130055695797, 120.32202875028509
9.799609798369902, 61.99189552931186, 107.51530622389586
-4.730357281880797, 68.81043245168802, -72.24960429143458
5.1598158028024415, 68.56599678269554, -42.91113416664755
9.767261486039502, 57.85509835579124, 16.827757998952606
9.746176614968286, 57.761241105021504, -15.395004965920961
9.870996644218756, 61.60107003276623, 8.674992902888116
-9.346423403201564, 56.44410776765014, 86.6207469512562
-2.9523041112054416, 50.44573914763892, 29.913439748871905
5.449672198534423, 68.38457350904153, -21.81224841110759
9.329978582470147, 63.59881920227292, -31.240040161560774
8.739248991881572, 55.139390258630414, -35.007516980913294
-6.866865991841179, 52.73046415167412, 21.03211132583874
-2.2027203170660448, 50.245615180608034, 11.720333151498323
0.7459418306441621, 69.97213972953124, -25.612789809949604
-3.631855975996171, 50.68283185889506, -21.912396549463704
9.88356762584241, 61.52154230483409, -88.53045470257587
7.002966771000974, 52.86148079751436, -5.302939555408514
-9.458867268263388, 63.24496995384788, 86.19548581102653
-9.923272597591188, 58.76360970810353, 26.25379531226843
9.984716265128835, 59.44733273584218, -52.198087861885114
9.999326812360964, 59.883968540476616, 12.538000978186039
-9.658035768434226, 62.59274856005072, -78.79003573108288
-5.426151327316148, 51.6001856107968, 49.07921479025424
-9.972825857315437, 59.26328810267472, -20.467119380850857
8.364892124444719, 54.52016608404938, 31.84982121644706
-9.542152626016268, 62.99120765942635, 13.774034301851252
4.87207256290908, 51.26713626914123, 3.0129422988504
-4.991732324917313, 68.66502212324791, 7.211978085998931
-9.024467802151513, 55.6919864336413, -1.216633634592587
-9.961787707352665, 60.873376020759295, 32.31781161155276
1.7493010031687888, 69.84580854985067, -46.34813656026626
-4.702157763728493, 51.17448515014519, 10.046693840705334
-9.945188126300613, 58.954422105967566, -111.18305864173286
-9.599812476841054, 57.199357143531714, 22.848834274757646
3.9579639347988187, 50.816617099846496, -36.153093236049024
1.5432908472516025, 50.11980499378735, -38.145989161405936
4.739751364865309, 68.80538227445336, 12.130466635408055
8.237300442096073, 65.66982199250063, -45.19545033835412
3.3387922233337504, 69.42615862848733, -19.328607401752294
-4.954909125074528, 68.68613121949312, -51.60200583133604
-8.418828437909209, 54.603396648534265, 5.6714229630409125
9.63120519019217, 57.309296265952824, 35.86035946838004
7.365979458219686, 53.23669114847728, 73.85858661485031
-7.847935693182945, 66.19757253734598, 116.60394508055916
-9.83222816180166, 58.17591409898702, -11.71455705373058
6.222444329805459, 52.17176989591697, -8.316204492576722
9.975134999044325, 60.704756518835374, 63.78992053112872
9.657341915416774, 57.4046682044998, 40.17814893222531
-2.8901262555457374, 50.42674714493526, -16.73656682949885
-9.570042110442596, 62.90074025110064, -38.15848615379514
9.969627304765131, 59.221198739034435, 91.77514153599473
2.4906731523899075, 69.68486175678126, -91.26409274744553
-8.910590530483196, 64.53887391299463, 55.98468435050287
-9.999885899270824, 59.95222969997438, 35.4864629682922
-8.25421472450013, 65.64516955297582, 5.260542115583335
6.504346759777259, 67.59562197773, 17.482195549354586
-9.130087309613888, 64.07940016654746, -46.97526073243899
3.0519665653797974, 69.52289347224907, 26.505989719885818
-9.389076280255042, 63.44169240397107, 31.415390583018077
-1.968089746670392, 69.80441853191972, -82.53750670748468
1.8905501717384474, 50.180335033814046, 15.063630303420329
3.4342653108082537, 69.39179545001801, 105.97444820634361
0.6907172880084049, 69.97611696142573, -14.82526378523523
-9.698060143557285, 57.561223779854814, 8.116742665208722
6.860848100696655, 67.27521569021614, 27.023569585226504
-0.9292505034982532, 69.95673106505083, 146.15936576774357
-9.899361604820317, 61.41514657085735, -39.602584938585174
5.589213133767894, 51.70779302324668, -7.286333380612134
-2.905603282860256, 50.43143325452387, 13.741152287778613
-3.735153852419515, 50.723760153016975, 8.836556184232522
-8.625260859865909, 65.06012599638242, -10.354985209625687
9.327839845228896, 56.39564099710362, -86.95561988091335
-1.469398931759324, 69.89145422975533, -103.97367115704755
-8.724834840197644, 64.88643602345036, -8.685048172558165
-9.94177329127928, 58.92243616207393, -79.05402197006981
8.789870111174869, 64.76845713293878, -14.510372043409312
-9.810491692143135, 58.0624105805433, 31.199483102188484
0.6691080770324458, 69.97758960777853, -10.012895004071718
-6.883406299931566, 67.25387604733238, 42.05454459593777
-8.751153992965426, 55.160857122236905, 46.106596483086875
-9.217006356012554, 63.87901970003043, -15.280048519691267
8.618855196080112, 54.92897100097004, 7.157503882878732
-6.562017895286507, 52.4541454332899, 43.51947508821476
5.996335722629905, 51.99725310274575, 33.985531945201465
