79.57741276217367, 82.90289655083473, 0.03857458077726192
128.2051868320005, 106.67843417193352, -0.0769719823364492
75.8753612314091, 95.62305231584905, -0.0632586734297677
54.43073684826963, 91.28423572678135, 0.029236153105090784
133.5582769282181, 92.22381111847625, -0.0325493729061362
94.78594372371639, 119.42709167150161, -0.046475552635313694
87.96566041125944, 104.66231472751987, -0.012711765460675421
123.56685081612724, 101.89645616274235, 0.05120344329952168
118.64904845735572, 86.80975065382056, -0.032968084663301325
116.04515432585862, 107.63845793854391, 0.06458059907159028
103.84240354036578, 89.85976040121784, 0.04935372867902773
92.88979097335344, 106.84687524328342, 0.01755374539222427
120.72117853686504, 118.6900308631339, 0.052281508833501356
72.1092874612406, 111.61832983423983, 0.006350554411785971
56.52097564263816, 103.35618978553856, 0.001941654180517345
84.5854425111561, 106.20501467083842, 0.040125753001459735
60.82162911376183, 95.19589253050555, -0.010682011217930568
116.03069900224264, 98.8178068975361, -0.001032207119552856
42.33158836828677, 94.78159781040368, 0.04242098595141521
110.40462685868822, 105.47713056478871, -0.02554753966654591
61.463170570202706, 99.9493839313409, 0.022601794698558476
101.0467299701727, 117.54652597578456, -0.006523484185559499
69.5853373817867, 103.19705265395882, 0.0073034915338539815
106.43853065396992, 105.78023451379161, -0.005004593694681249
104.4826883896356, 105.39272754407882, 0.07367324739269694
101.0843180560273, 105.21742841525838, -0.02224292606066805
110.904251604596, 99.41547314496087, -0.021854322007457933
110.83114741076363, 110.19407899997432, -0.05435713467243587
112.67608409981585, 114.78569647868217, -0.07666558905931288
103.00732938633057, 72.32578411706413, 0.06758062953995449
156.5966443097866, 124.4450918111691, 0.005462319719244888
53.86187182745791, 91.70927791805717, -0.025832086252797416
140.2167769849672, 107.13930408102013, -0.05720964161831189
51.35748587300259, 92.55347055927213, 0.06725910595924225
64.66262683266712, 106.01334144587226, -0.03149535769270282
93.2607269249194, 99.13357252951157, 0.005699252923831388
94.64732481086934, 106.57757526163495, 0.034178029172856624
49.898006146807326, 117.5282932139657, -0.003290941368511847
83.43447620418779, 108.84987879346374, -0.07936516875290246
112.8427070503653, 90.83633569276789, -0.028197995915699478
72.10101411800224, 106.379068565856, -0.04657878743586938
102.02733096748447, 113.82839405484104, -0.019061124346519763
113.25657264327367, 91.34654960828864, -0.007368587683271116
73.79885609237911, 86.95602245720964, -0.0026561553154648395
127.28167664921708, 104.60408324858558, -0.05972471684974358
115.59698419752355, 105.02772308635197, 0.01955193608120725
145.01006172230032, 110.82459340046724, -0.022377590367010043
64.87440188986834, 87.54606152093633, -0.007469367670490362
148.72964645800107, 98.9933049925096, 0.01458920943943414
64.00612815681146, 95.75387018435926, 0.043949020011923204
75.28653262249546, 113.14029196825335, -0.027570339076286744
137.43770326538316, 100.8051549994921, -0.028234144312661802
69.45587470322388, 113.50885803578512, -0.02247794758042322
87.10552794786784, 97.689317216005, -0.017580686032503613
119.00608254094766, 100.00764136200183, 0.0844927906687962
100.41649265853928, 104.98648455423123, 0.041371709662652786
130.92331064906142, 108.66783348100144, -0.003931509719051856
108.54941227639517, 99.1801929084907, 0.021794936837757888
119.7986971967914, 98.18884731880134, -0.012920888573326862
88.39888674135113, 102.73841173970399, -0.013704424976895939
106.9683609920975, 93.07652200446528, -0.0074863114825007935
115.02895821316949, 100.10505100500338, -0.06752637108413446
126.94286564542378, 88.74273153652446, 0.0558616625522648
114.79215006112534, 95.60672907525732, 0.05561666298080614
111.28749969301859, 107.17867576950917, -0.01602070300508504
77.21370426447925, 96.66728913118216, 0.00808566764993521
103.4018486469265, 125.34112715821217, -0.025960799503827965
133.36750885510196, 118.79498497807916, -0.030759772637368954
85.08513052150313, 93.0174861314129, 0.03279983611793388
104.39564852889893, 112.5212178257153, 0.007776364282435212
101.94784593643568, 112.05426081359653, -0.0004331137629215375
159.3644050679105, 111.73189929889652, 0.09178239260997191
118.8501955502625, 111.04864675829305, -0.012500003784457734
74.8745883832609, 90.87794181978902, 0.07255277171352173
112.86745227840925, 101.89002303918669, -0.0716753232634704
103.04264694101346, 84.66197441650137, -0.002664194854628361
123.2492146298132, 98.11325261530669, -0.0599118351587556
107.86223266497161, 92.90420866117604, 0.03954158834738548
85.79918665983807, 113.85542373646422, 0.002810212200313908
87.56189885176934, 90.48894154812044, 0.03388588893541554
108.71346893786746, 91.73467406736586, -0.03153482529836172
135.24610986657888, 109.7472954057428, 0.11750712149561847
126.47787235721503, 114.26874884800256, 0.03852423513384648
109.00899365945696, 98.38333758927003, -0.03488761437329573
110.48358502072816, 124.54429443462388, -0.03559027104308176
100.03267672480303, 115.77078431524956, 3.9637766236329974e-05
78.41850172089022, 95.53670315050175, 0.0555693361584059
31.385282987410235, 84.49310482769123, -0.030371987155093413
65.66508313726864, 99.56016830939016, -0.025221956364229595
76.24516319169338, 90.0356245885405, -0.02614797347713438
90.38472811915048, 101.57329383101661, -0.014635040800568211
121.22199891372412, 73.38679165241878, 0.016329418969641806
77.89044982684332, 98.72428918518455, 0.01374911755112676
90.92174973781404, 107.30536005698, 0.059336750294537347
123.57410711354456, 110.04155355583421, 0.06700090690219211
101.69181181777057, 76.1526274323425, -0.05734613002103735
133.66684221896105, 108.5253831678354, 0.03729281903337122
90.24399850366333, 109.08929598306831, -0.06818271278009373
119.65716853049987, 88.49069689317108, -0.02290307879230528
122.30693191652108, 94.36940685848153, -0.05625924790063657
91.30520106566799, 91.01474664453988, -0.04461646600438551
81.40644980440217, 112.764260118698, -0.056443058928903195
99.53578665219452, 101.35129252959206, 0.0727620653274089
83.30118010669693, 109.46260138576618, -0.07308228921516413
145.29829458856656, 94.3175026040769, -0.059905499816915425
121.10695004573786, 90.79352391267052, 0.12541785481991133
70.97816247935921, 103.4143533432907, 0.06503637945803402
92.71647826655028, 107.73414496927796, -0.002189470953106784
121.98000784703333, 90.61267768357197, -0.023180436117220093
135.30800752040247, 109.75688910023402, 0.042496445350674
91.74730014964183, 106.02135330852886, -0.03462491550928842
97.03379461246416, 90.06414260709023, 0.07406085732034741
113.3473372638824, 99.1434445357743, 0.027194514876189443
91.63506999797225, 108.57968679738453, 0.02288926217684207
101.09047139292075, 96.5779066645845, 0.03131466634971319
91.13868966777667, 85.73571702020215, 0.047476007101583284
63.0743535482509, 106.89300268506652, 0.08166938778388298
73.69913820349734, 98.46575073921498, -0.03144016064493739
152.5783529439041, 91.69640041674378, 0.05722747514538284
47.43262144360709, 109.13103346943339, -0.035962460665336475
100.41411922482006, 114.13420649616167, -0.026346499750943293
151.2170743260715, 92.94987474827973, -0.031155682882599813
140.11141515961265, 101.3672730177488, 0.0409345066879738
98.36657390652724, 94.68656660525829, -0.0335750830880687
88.82677529458047, 104.68228525747352, 0.059310899763219876
119.47986454398216, 100.7762110419192, -0.04723135351013477
108.68298582679799, 93.70094340283644, -0.015916035981206503
80.21324824449434, 77.85615981843452, 0.09177256110710647
81.50843705688091, 101.08575490476584, -0.03209479835190061
102.73656588499473, 96.21888367928746, 0.0024833955543237325
135.8598578803119, 121.95600861679563, 0.0642614397657043
115.37584714595785, 97.20284335086079, -0.003793791067623769
129.8565988143898, 96.80490525384252, 0.07215306733675868
98.88538722165552, 88.3391317833747, -0.01856334152180607
92.93433176020804, 99.20333522908551, 0.0971571584184663
111.66851696264678, 105.9755977785622, 0.029782973483437475
75.43703802338277, 105.46192058559552, 0.08026390255145682
111.55201091962331, 105.25197993639675, 0.014129690025889124
68.16292926293823, 104.89523791067597, 0.0005153354264720798
128.32929986340469, 89.72062233970003, -0.015448676815744342
119.14039000396357, 81.9476841314603, 0.06776656290507191
112.71803066152098, 127.07364804485188, -0.0474205613088076
129.49379615976164, 108.72613369972804, 0.007903950351504667
84.07342971945805, 98.69077298714407, 0.01975209075721076
54.20628658367988, 90.3627419600494, 0.04054868419566237
111.32904599496308, 95.44126541742628, -0.013869185136213522
124.15695469871903, 98.6438404847809, -0.10250403733988128
87.94409399816864, 110.16270653425313, 0.03401918984737156
82.6854881978486, 86.50251258144914, -0.09344678826538222
79.89114391726751, 98.0795463540099, 0.03759751734709879
98.04019804853519, 111.5183487253165, -0.004960502838756195
143.88306908385348, 86.14322540945005, -0.08113242187139741
110.70224251430187, 101.21536407909575, 0.013998964766592823
58.55022799492801, 89.59871161888147, 0.03518750763637732
85.80716927540834, 101.74550551094552, 0.038703244849485376
112.04117621318059, 97.01632091862956, 0.029695926757534366
144.22066423081145, 109.46229792121144, -0.04309142251903686
120.56603565777847, 88.10498729815026, -0.04410515677582047
84.62501966527816, 92.9230470148066, 0.02615541102048461
94.8164039413598, 105.59278171067957, -0.0022923593714436648
107.35822740473009, 101.05668910361995, -0.03112972296052971
89.95655092861476, 116.230458147863, -0.010460095386667909
88.24175465789497, 101.28930283675705, 0.015564424904384365
85.88809276166972, 100.01012574037776, 0.01608690894604541
134.11466962489743, 106.54457985991115, 0.03659419979081418
86.50849910073862, 105.56500929185962, 0.09815815705843944
109.2010970016487, 78.17658401529152, 0.07057270315916422
79.6666829846903, 108.88814750071137, 0.013167138071571686
89.95709357614422, 80.02630097256937, 0.06189505809237338
58.91032450838823, 106.2988586862512, 0.059245899706743814
44.043094502810874, 96.0896615862998, -0.03581308159406261
102.06802789630666, 102.02341930972031, 0.030530194014538825
162.1537015314325, 121.1788007427181, -0.007602699850569973
134.90945660840143, 101.60641393181567, -0.04143076485672462
127.35608224769223, 99.66195545919545, 0.0018886734849141583
104.82454714571097, 82.35487144199776, -0.013305426097686366
83.0642933618786, 100.51724674022218, -0.13470506161957443
126.31963116384362, 99.50300815295901, 0.017844819233086655
138.70736129813355, 105.4302413297116, -0.026963964206012703
115.75460074368561, 89.12071612033505, -0.04183628933322011
106.07090419108394, 93.43075044236288, 0.08519227119402065
87.2815811487015, 83.32965477609137, -0.010862374467802121
139.44759046065585, 98.09430314466506, 0.03994120266785676
108.15818437073546, 104.52053186348004, -0.0434728686872387
133.5290096678757, 97.36319363788553, -0.009773124038290055
175.22383632811318, 106.75430839408074, -0.010343166926177351
126.97913452742472, 103.3602345728861, -0.10844782199761889
148.55453097408292, 99.6306463882395, 0.1524923411512864
138.09197825413833, 85.31602242668995, -0.13066875471626618
86.84533169764384, 88.65627040632513, 0.15215001658667926
81.73585468387427, 97.44731751709791, -0.011132526072628969
102.64561990658491, 107.95722850794638, 0.013248623910269437
120.12090261817778, 99.32394382334407, 0.008493501033100278
119.95084316991586, 91.91448614030608, 0.021024091194324305
130.29731053052342, 98.72705543867609, 0.07508408052704668
98.4715847562981, 116.02703836160967, 0.05076449583211571
65.0148344313111, 100.99657251251608, -0.012076506372512993
84.18409921751096, 110.81076111029964, 0.058469065113236456
117.96213832507, 102.33419651076949, -0.03508832803731618
61.271822278325885, 82.61103958126478, -0.023780983488378385
101.82667222690283, 88.0464963794937, 0.011780984472298806
120.68496782529064, 92.29216959481326, 0.03640424004262718
100.07746873729187, 108.30525709363461, -0.01762527812870466
101.68063485267257, 96.13426742122655, 0.11149628388262978
105.48086879547617, 82.22902590946414, -0.06015833504180598
95.71713665419978, 102.63659695149379, 0.0709358953532866
97.73023518718907, 100.05597987808748, 0.038892728317256854
106.73830943162822, 110.60074714509648, -0.011919271423902781
98.08499376239814, 107.99984637329737, -0.010186234232630277
92.70169767581996, 83.3666748380126, -0.017670495839972596
38.250619530842066, 90.26842315044792, 0.052184650676973046
104.78056034995683, 119.84878508085376, 0.02071173057137679
98.05881213826733, 102.01286956298274, 0.002807042398342129
107.01300094213298, 107.008620620408, -0.013008979987295341
100.76856716842435, 85.18908483419958, -0.004475273343211702
160.02262962672145, 103.72775315754866, -0.01398074271834208
34.29926367654002, 80.27896165383673, -0.055817662552949426
105.41957505204047, 94.25971568779404, 0.09497674996921486
88.07175034617867, 90.42914244103356, -0.057333968461270646
64.5776821355143, 112.1730440541186, 0.06381270891999583
64.3768953121303, 108.01121247704724, -0.07950169289721702
95.22130828922765, 87.32184415031975, -0.010320338079499464
67.83053722090796, 96.37070880453594, -0.03185614972011452
77.38599013337497, 79.62435095230903, -0.042183107923893355
118.15394741321974, 87.55225632299928, 0.008490483317806786
61.97113683224808, 111.53441112675648, -0.012452498235635894
134.51094464714822, 100.18455617044587, 0.06824190960179259
84.84080171646025, 102.09125878777458, 0.0013214115121725264
106.29032157730319, 104.46572096570219, 0.06894709946170707
79.49611170943861, 82.83553993763744, 0.027476429314372015
88.89995005519778, 95.6180685421668, 0.044189136140529606
87.54251345053449, 91.44355529621873, -0.04508733466314458
96.20476337966907, 97.6715262577754, -0.028429976164884935
64.85529684383029, 109.5155936364652, 0.027643228944893475
102.6178226582724, 76.05696586352349, -0.06417128307287574
73.94729873013063, 100.74643703475807, 0.056774763122580535
88.20568015974925, 105.39565880534506, 0.01940135824973321
108.1316376518251, 99.06300540190195, -0.004285267145251374
76.7970301112067, 88.2697244023798, 0.014904631137597997
90.23597349357152, 90.44566021098782, -0.041473717685049566
89.82480932220474, 102.8705605573924, 0.01731007080522564
119.7839897882793, 91.48675372059745, -0.041521062363480354
111.51793720915, 87.46805578770744, -0.029245099794405607
96.15596006557467, 89.70119935448486, 0.03797718928606528
129.68502906745775, 85.01974054079335, 0.018464751255497222
122.12375993822653, 102.80221950954785, 0.0695883810696789
132.61049496147655, 101.18106486188194, -0.02038760275742381
79.6145517001203, 112.0702575912129, -0.013874712275687942
115.10971103689124, 103.46692605554834, -0.03199865657746733
112.83491121455292, 107.48182389911773, 0.017962332517343516
34.72522894730528, 93.76677618096468, 0.055168528740163036
97.21472052128901, 104.17126941683003, 0.025055354842875993
42.362435415702784, 112.45470561744808, 0.05562930099333296
93.04954746213957, 95.87601216475906, 0.03335385244835058
117.0312909468131, 96.88140491431683, 0.04753159055208807
107.88583350466692, 96.83325369787178, -0.01927132869342767
58.441245026771014, 89.2665499602787, -0.0751535862867724
114.96411288324958, 111.58117518037598, 0.015770339704316887
80.10273222353976, 93.71709329251047, 0.010829342217603065
76.29105873986661, 113.70200454592477, -0.08590619532754722
100.28346149683934, 98.2005415166059, -0.055791243270923156
171.9741545996307, 97.35214257576109, 0.027916413343331798
109.1525032841013, 92.4557901790135, 0.022584045712240836
164.39358816871214, 110.26160746353884, 0.11745092650916947
81.0494973276504, 101.19258887988889, -0.020024571820909533
87.34027204004593, 98.19427611062977, 0.06980292389360972
85.99370461296493, 96.40091993817249, -0.07008797550997052
134.32061849777466, 93.0143026054407, 0.08885021884733205
70.85522475374732, 96.52046611263097, 0.003166285036180598
56.73617739153789, 108.52470358351957, 0.007415669247582484
111.40760619256156, 95.34917500848864, 0.006143495864609751
122.05147143078798, 103.44438285513611, 0.016033661197167
160.66293900504456, 94.86662326732234, -0.01891495513711981
75.6304249026127, 107.79057886594411, -0.07538341417338809
97.12488070102702, 101.76157876251713, 0.02749282417348789
102.2442801101303, 82.93114997463864, 0.020939771950645628
92.20227439047231, 102.27330297284682, -0.007536342686715197
109.37430051521729, 96.83597277904859, -0.009341577605914938
104.02676292621797, 92.86342428416587, 0.07792459008682133
59.55122703746541, 93.72260456605147, 0.02871266763453319
122.79841988977714, 101.24531473336546, 4.6850533658197236e-05
110.84395231101333, 87.12295652059179, -0.05657193040710108
97.55737645547612, 93.95489554196222, 0.0005993887526880674
71.19239906894794, 98.38090321950025, -0.004549538843876505
157.43136191666048, 100.94353263846737, -0.06180150313096602
71.04197424514422, 105.6136264013503, 0.011594616157707412
143.60214234326057, 107.55859964062373, 0.06221176654652508
71.98158903009723, 94.34937431858458, -0.011048305014182525
103.77114877846692, 95.8423161000272, 0.01014715351691049
109.22639926647196, 107.23512327017058, 0.0090886294498519
89.26122790674351, 99.54404013883179, -0.02377198756128661
83.04672614325725, 101.05279975990403, -0.06213145404281583
91.56703999658598, 97.383529715046, -0.06339192006358016
147.2363811540091, 77.07135601753713, -0.049675955893104674
80.46467671519027, 93.81504654640322, -0.06392813148626779
78.87694676771545, 102.4064500067056, -0.08319556326118115
104.40880325243963, 103.54243249190199, -0.07793475154679795
97.63530816884004, 102.28829169024188, 0.10944558699898535
139.42993191300422, 97.58353602983067, -0.051879021193242926
104.73070914039717, 98.29202322257777, -0.014290785902327739
125.18514343782093, 110.32181517406654, -0.0018785373078550915
82.85719243918426, 106.02396022906319, 0.05499785948323646
92.6460555784297, 105.17893424942957, -0.1007526920938451
143.04934932592553, 90.94112361799048, -0.06913418830212621
108.1881798102399, 86.8146502074813, 0.010727965489420012
146.59666930982024, 119.6640262294179, -0.0016115935424038557
121.61315422725406, 103.08501455400445, 0.04688437583838994
125.66394914671592, 92.33142553727804, 0.015473209286133285
128.16061008136452, 105.06284160947283, 0.05717445043471038
94.7035875076673, 103.39913713391914, 0.09243520877626143
78.95409099115415, 105.96220214157853, 0.0018307677485005374
77.83712242193747, 97.93931445554071, -0.04552492241356038
82.65424058176959, 97.18784161661947, 0.052270701012742816
82.65463341481441, 106.03898591326659, -0.03524486793687923
110.62814553017704, 106.5742119276712, 0.07370311376088988
139.05767207568454, 119.66407666143547, 0.021801097568977506
114.38004428805681, 116.09158641000445, -0.00864599062832038
143.69891640656613, 98.16778262246655, -0.007986956944346245
65.54694750292786, 98.70083945726843, -0.01640595636041135
111.71748526905273, 98.45765948228187, -0.07717851599766279
106.3981561517684, 91.49336687696773, -0.0984031916981854
126.34107748780335, 122.16574946366126, 0.0072064528438968494
81.49302994590047, 98.79808321334802, 0.03424237574684979
66.06508780132486, 114.07518419837307, 0.003471405954897365
93.29192189941635, 100.50672358159798, 0.04020115961660945
98.80774066594759, 85.88550148124271, -0.01745724581743439
78.61831700676845, 94.63795534738405, 0.05364361165459345
92.05886628653299, 100.18684951249502, -0.001970461861240776
111.61516871186235, 123.48375625274805, -0.061682395633921965
85.78560951839077, 103.63506257598698, -0.0367247636013743
56.58270598795061, 94.54870413888584, 0.002669424681020653
108.19834923384478, 105.65564406061699, 0.06082924896207564
81.63521228146962, 93.13293540320916, -0.0007991002342191533
122.54137238746216, 117.03839368426401, 0.0981760385035906
79.54419243461444, 87.85650151137514, 0.011485242686990079
78.22346790580214, 106.09409969157254, 0.00576742613086484
114.5971530677598, 107.26759555896989, 0.004252228186008434
78.65947701226943, 98.17175795034076, 0.002880640064346574
84.39458808664713, 92.93724876834867, 0.039528993717479255
135.15084699240725, 108.7934097391323, -0.051659782532039504
134.614155795589, 105.20011679701814, 0.04858033310676693
69.9432533595552, 80.08531239708675, -0.04955374864774301
90.82706176264999, 101.6939529745123, 0.04784395473539034
73.77620334948728, 104.50356985229628, -0.05903594523080219
115.12092000544435, 86.20309184936886, -0.018547068570356453
67.3641638633656, 94.21716080114061, -0.006826937113173797
112.50893637938417, 106.30653486605655, -0.02510940198712628
131.94958461603707, 92.31253459450382, -0.06527951980267677
113.80496093887513, 115.23038710322133, -0.020933101985133727
67.04514387358495, 90.69221204653317, 0.09069010284520995
114.81109416428562, 92.48273828317996, 0.007023663496509589
116.58387951212225, 106.8043553118811, -0.05101294402317561
96.39206491641514, 97.51265925214841, 0.07541410125273383
63.475600017796346, 110.16379712776653, 0.0028563907729517173
109.96311294087678, 97.99383736683686, 0.06942721663892852
91.68675643451074, 109.0807415131714, 0.034549047874279586
77.44448907857867, 85.71957131612776, -0.01279086571238356
103.18582610038095, 108.91269234118808, -0.08084998612096156
86.35328022017458, 119.58758599216907, -0.009196871488423356
114.66776429130137, 99.53732181253537, -0.07649092256550383
11.246901431075713, 103.5294163348308, -0.013141807004132337
54.818768903563765, 113.03901459188793, 0.020013805872850093
172.21789776417296, 85.45804020132755, 0.06940595378194214
125.79462808501017, 84.71719255918194, -0.011704555519324228
83.11398214546298, 99.11791727122295, -0.026618694601522497
77.02500887712627, 97.59119081389406, 0.09081065806028443
98.74672541814681, 101.18136995482449, 0.03422139821372843
98.27503088000847, 101.20541215755715, -0.0490344161831203
77.07971747860694, 101.94765460873182, -0.020207810321905776
126.46710489088645, 85.28084795431904, -0.05137687498442113
130.61217484175052, 89.48474139819685, -0.011525207550623827
91.63507265342838, 100.33115065945417, 0.055684135744118374
88.9787073070873, 92.23408531538122, -0.04579018358263312
123.78403045545755, 114.08769791753868, 0.06596483226358789
105.36866179597209, 96.19217549525727, 0.1281592251901534
146.98335071889497, 94.93691611747764, 0.022140035345697848
117.89655015619056, 91.72888872299083, -0.02021261375690323
111.92812707402742, 100.9272146558191, -0.01884888057960772
92.7277159590993, 102.37233211226462, -0.04012423767234114
80.02325142847897, 92.6475650706752, 0.03302407977431682
71.89686444352738, 96.46060941623679, 0.08742348020269784
84.59381673549042, 89.79945202788866, -0.0006880621204739342
81.14105289572723, 95.72998613528785, -0.013352800302935376
108.35562538393464, 94.76473343797974, 0.041180537908754915
72.23546529507608, 96.52913188555839, -0.015522185954694519
95.36211368825457, 93.23038448163705, -0.0756391742362021
31.18625534400053, 103.6025156613215, -0.04178789480640429
112.67562092899561, 87.71469275169436, -0.02728408476944969
112.43096243028005, 78.47413693711924, 0.0049009258330091525
130.38690409517622, 85.97608499890886, 0.013047893329796847
82.25714087741758, 98.77326832284425, 0.06813819249414897
80.63555657481655, 111.48311522765218, 0.03222894705244005
109.72996013536982, 98.6749768197833, 0.04198763303964223
117.84548412907463, 116.04433102217668, 0.03205996290202354
127.10313703839245, 89.85713981134238, 0.10666903115567937
133.49331412480782, 96.32594373569695, 0.0060681186911205115
152.10419568228593, 106.20103301335797, 0.02936406300597465
69.13776112171644, 105.40378098077318, -0.039094110214318946
83.31011840706225, 103.831969675204, 0.047446432561547805
70.8168336915099, 97.37381615813453, -0.039043102202297876
108.26389082305602, 105.14515653298167, -0.11366376219627075
130.6181565260363, 98.63608387198994, -0.045089828800568
108.59945881961796, 82.8350783375093, 0.007558133684080451
79.92346697849828, 88.2213630969487, 0.12374920604854184
114.2039519062788, 111.11546335675934, 0.019363935320906748
70.53583508154496, 88.01175425458445, -0.04382450552134662
84.62810389393958, 99.14320986225763, -0.041848167450283885
104.80988732564457, 114.1721736331767, -0.0434722609611331
133.9001862219335, 104.9781796905169, 0.03787060199921144
81.83608483936703, 112.58412732586187, 0.09356805049439215
92.19984499001453, 96.62044574628857, -0.006218034176865228
65.01314561190571, 90.04315378447525, -0.07341642245813543
109.7765923244946, 99.12156242340633, 0.008352470109048968
134.4178885006573, 99.41262337212832, 0.01483248376172896
139.04462508175163, 100.6316145795941, 0.0432556139714782
118.78089986708066, 98.54473110249694, 0.005755549563233908
87.97212853665667, 79.29639783722476, 0.02644738659029255
96.39492619071007, 115.47973206911325, 0.0352765783757136
94.05040441287466, 102.7923319133665, 0.12167952073596491
87.551292035724, 89.72392906177753, 0.0284284825108671
96.96267293836097, 80.15135299867497, -0.011437284835296097
62.65439600067479, 95.69559140803806, -0.05139351650936034
75.62459374316043, 99.61441297790277, -0.017050732928806458
127.4097343450905, 92.58021444013833, -0.0628688494999211
77.96584742854354, 96.49738685049255, 0.056037002709109995
101.91914928790094, 114.7478450462975, -0.008624580403922982
101.13279700721196, 127.81488583543081, 0.040891462803376875
81.67044406430378, 103.32635538911582, -0.046872052108677426
44.844036188364115, 92.80049220672262, -0.028305676017998594
106.03686779227765, 105.03875774142176, -0.010155409948981658
79.8003886294275, 109.90759448600471, -0.059713108539052234
99.424784843361, 108.79965770134382, 0.03696044404068563
141.0308606651965, 112.17302402661588, -0.047157722474685866
96.4946764976357, 88.93030959569073, 0.0060870597068369715
110.74072152436013, 117.60130078665341, -0.0037288056420129267
70.94289971496133, 103.39074654888158, -0.027105302412042672
74.1544299725362, 91.93818631329405, -0.019389276803974505
128.41858362590455, 93.73543793804753, -0.04197819374390558
70.5269728873582, 94.36579874376318, -0.009774544027946912
110.39131511652391, 121.26990908541828, 0.07862138669722944
93.99755946073418, 111.36700517126977, -0.08945053142325389
118.23421538402098, 101.62392200019939, -0.05122935564238001
134.5694565225386, 99.58488237436408, -0.045807972037311684
126.85788463645329, 130.41339489572448, -0.0794938571020864
97.58160812320004, 90.33073703514101, -0.0559850168423406
119.78478226422573, 115.12042408463253, -0.11299573130015406
122.35736499882853, 107.61961602486818, -0.05977174586929466
132.29516824253608, 108.10408281869096, -0.052347468915236665
146.98450319793238, 102.05691386058643, 0.01518547123426648
78.10510955769551, 104.61318872041363, 0.05251416023393121
93.9229931095081, 93.76071982538348, 0.05877956698566446
84.9693749549245, 106.42486093834972, 0.0663888905491433
89.22070840407143, 112.34997995195218, -0.029682116834872624
72.58065902792436, 90.99156202732578, -0.03275286746130034
62.181753068156034, 91.81051632715258, -0.004225982125680146
89.32787246086059, 107.46947528181671, -0.035257710741625106
75.8426340493028, 112.21973732749744, -0.042898144592623054
120.24557730125173, 94.20382622784174, 0.02417609696039702
106.78213624171379, 96.20749455298885, -0.014524318337098064
91.00051233285727, 113.1910842151558, -0.024557725054327347
106.72455137161329, 112.15631396587352, 0.031185918768093
45.245986727869024, 99.67046795142716, -0.03004820278409492
106.63828926529054, 103.43606710926296, -0.006299216795982604
104.93452545289327, 91.77370316824849, -0.03610821646252449
109.0261783675332, 82.93835375831696, 0.07112325567735614
40.10840102718048, 105.93402376178717, -0.03732176214988852
57.112323516623825, 98.40364048633556, 0.00535850115180753
78.23250330300243, 100.7306672230298, 0.012932692504287371
130.15217989376885, 105.64801193756179, 0.062135119011355794
98.51331247655789, 92.27107533272314, 0.09579653850421088
125.31829821307807, 76.63997218636744, -0.01721259093900559
70.40659536157486, 94.03788217438274, -0.017137802080659553
117.66454261871883, 103.12927105890927, -0.03140490602134446
114.53522531091727, 77.03989967388989, -0.018352592034937745
134.45488699129857, 93.906051960257, -0.01653557517537837
114.01933832152537, 88.33510935457181, -0.0342906865651793
73.91012644379458, 99.62330353576596, 0.005990038962676757
109.75404613362946, 100.68675118695994, -0.046890037545133094
102.10896545438159, 99.96391169849272, -0.023068230710778917
93.07846747371252, 103.23037214578845, 0.08633836822980763
77.69064653796678, 99.24655242345669, 0.05955269700781493
135.18605799977271, 89.29147616239803, -0.06316814277631265
57.99205573311314, 94.40324395451573, 0.014488319884057708
117.29619791356657, 109.54353643076647, 0.025373334311917597
88.78584940520177, 81.51602592611711, -0.06076711161864659
86.91679969249867, 107.24715589625555, 0.04310637059246264
114.35755023632741, 100.74788615925547, -0.028785766075693373
108.86747622220523, 93.62186213023547, -0.022854075015144967
126.07801597801785, 93.35265579988155, -0.004229437432173475
97.22611915434031, 89.37698990766837, 0.04377213741951398
109.76232605755683, 94.50501124880758, -0.027482284256221425
118.11427677554431, 86.58901011394728, 0.005169330444842039
96.47525757359219, 110.50326403886855, 0.04654640374333078
182.96491092793116, 95.17788977012002, -0.02901293937153361
74.5860526880417, 114.05474282392552, 0.029108725155587274
130.9385796227687, 94.1650369555369, 0.0786515240009128
136.67456462171646, 84.5263744509563, -0.004873863639613475
77.08179910374498, 107.73241527967451, -0.0405067407954901
126.48266046241038, 104.76380491083896, 0.06176661272601476
122.51592270746502, 102.43138926747503, -0.01855184290906168
95.7397640715284, 107.77483749891456, 0.03239693430688237
86.71939379834147, 108.6066145471651, -0.03666023799928982
50.96495511616123, 93.45080231385579, -0.01850329540008619
69.5863991399147, 93.13223988814731, -0.030007502413710748
138.44965988598568, 98.5065567211877, -0.02387505588006887
101.1892955359504, 99.87687900617347, -0.054352402483928676
72.67504851219849, 104.67603880961514, -0.04740190584671858
97.24591998140689, 106.75257566287911, -0.043253696935300595
131.53235312826862, 103.25819666095295, -0.07360721732415909
147.98622265890418, 89.8561142226311, 0.028795729999478693
87.00352100992525, 119.60770648559453, -0.0702378600466032
143.07981381240165, 93.73384643987735, 0.035084555654744796
85.48694907007078, 101.05638982459412, 0.018549916239884313
92.12139928936853, 102.29291112356479, -0.0481129951587023
138.90139316444862, 71.67341647399509, 0.07283882211708183
115.41532468736585, 113.40680083894603, 0.03746523415610236
110.80740900901237, 98.16224076995141, 0.004565292678561989
112.97246183088632, 91.47374279073514, 0.007147255206175891
68.62998618772856, 108.43379492984651, 0.030937610515452352
65.85620443236927, 92.49515002934733, -0.024078172953344884
130.4162559523749, 108.84228495140125, 0.050293694248584354
108.11914553156976, 99.07466951910126, -0.05816220609854564
92.45944177830057, 102.43106166270421, -0.010181880876988068
69.34285948791347, 85.99146913746799, 0.07098111961676858
97.45480034445009, 90.30784274463515, 0.09076072753627605
84.90175242997003, 92.39331607803146, -0.03878025439823822
103.97081479148643, 94.50353347735225, 0.056216173311499466
114.30467452808132, 98.47841051735594, -0.06997072493554686
91.71885534975775, 76.52326062910106, -0.010146611547817106
121.31806779828571, 110.30933956537305, 0.04591311318670088
81.63381709682658, 90.50358526005061, -0.0906441433353633
93.07211642693089, 115.4185225520976, -0.07461684611973647
73.11781241659698, 100.44612783248054, 0.0702724839231702
122.36109993574365, 111.2320779503129, -0.0018772293366209468
146.37016252320154, 96.14241601725608, 0.026174039609814004
141.27431901485966, 99.04480345751922, -0.02566587423663741
102.82636956976019, 109.32789205210014, 0.03782835059500493
107.16344546778858, 93.27343053682945, -0.03717625515379827
91.63994160299019, 94.00618432493303, 0.03463579646794135
111.67211468908239, 98.73725818024111, 0.010690303300116688
149.9524717435118, 105.1583400323661, -0.0019014621390275215
122.81145241321548, 106.3289955080013, -0.05623649656256935
106.27971034597958, 90.76585439835401, -0.0015666632601685948
149.83337969631555, 106.66697875767798, 0.08436077541277555
95.9093426849871, 104.30471467277758, -0.006873398957608218
116.58607060123074, 77.37586295935276, 0.10825281044337523
88.10099367643964, 91.27702188865331, 0.005825869644091879
97.38982434797644, 90.98774486967042, -0.05739942371244067
96.27599207463467, 105.66935135294574, 0.03538965262917409
112.51790129067342, 102.77476973694347, -0.05696527621728536
97.05259951135895, 107.88256195221773, 0.03528420000837931
140.0518622584089, 96.82865081505395, 0.022561014167180177
78.02491792249315, 98.30551798195184, 0.035733950788233125
88.17282739860774, 84.87031700277663, 0.0021197294966941544
109.76851284539698, 115.84080654414382, 0.009930112280706381
78.55787288029903, 112.81574605518624, 0.003951544818186051
116.66188576031334, 107.04948393095144, 0.021549529355596047
96.86382921925771, 98.40423607068857, -0.027181512441956535
98.14877483589247, 103.10168492823404, 0.005037445332820507
84.67382746604699, 90.73308148221926, 0.11111181274829499
144.71565393202982, 94.28471220542848, -0.03552068682610026
83.41225087132999, 84.95911172161173, 0.04532861473074304
78.73031600832364, 96.3005762538551, 0.03510939243626343
107.43805215883341, 105.30308723642298, -0.02114916223720892
76.70964222436477, 110.95340946987679, 0.043038538378122944
84.05843966793134, 97.16580538219199, 0.002261574987528037
76.87306566228544, 95.54484388202216, -0.025014603722982087
108.58579635021349, 102.37544298347157, 0.0076606312788476405
117.28904663787041, 102.2743945532796, 0.046150872422484016
75.32558105918574, 109.96579951925179, 0.02175920956830955
81.44039388278124, 98.59936732182157, 0.09862553562445325
71.01773225674947, 112.05113750823756, 0.07767230069894798
120.43697183807403, 132.18168662661904, -0.10450106090956282
80.26493940877596, 109.10664049420402, -0.007670500148525838
80.81604033807508, 96.85164787466202, -0.048986094362932525
88.53947551308259, 91.6069850641156, 0.014312516267216783
107.04180904010484, 97.79011037844379, 0.048429547620353924
135.83858931979466, 94.84634245738131, -0.007676878295052033
79.15945183515782, 91.70342847804442, -0.022934081379138358
122.84423356836666, 83.32492864323609, -0.044505648981134384
107.82223321707363, 97.65155581829734, -0.04617249610988808
109.36719998230106, 116.03022381550099, -0.09822221600535758
117.40966440571944, 117.00584613392965, -0.029888623466975503
87.33988300834953, 97.39982069366448, 0.014263915287819047
50.965632202596474, 102.91979480142737, 0.014066593554077862
97.4215257871366, 101.85248785349253, -0.021381835305718414
86.01197098025213, 96.04166408794786, 0.0494098607334595
124.63319419933241, 102.78202587224285, 0.1018230541010826
127.82641607633116, 86.72868325424236, -0.09272967012148381
120.29699784178398, 99.58913325372089, 0.007550197492743437
154.51688164578246, 104.05580129646978, -0.046886534583223755
87.50202001426999, 92.13179616697082, -0.007702535267629471
97.99844928560265, 100.72613529260981, -0.04860189756765966
105.76267078554415, 83.22353055799974, 0.07998316232713314
105.52292540459882, 114.44120218350113, 0.06740129516488767
141.56978858965874, 82.52980173311128, -0.04657427754477965
98.45139654179201, 104.79880348511819, 0.030958028713442234
138.0559619464597, 94.21229675126662, -0.00507621134964325
94.61156331636977, 97.5863879026137, 0.044374357289432995
85.7321818940345, 96.114035078211, -0.05529188501407304
76.92981195878926, 93.1821955871378, 0.03950111015644601
108.25060334516577, 107.67434354744705, -0.0018242170959244391
102.73571331961939, 111.33348732801606, -0.00033205862105095766
78.38487691579401, 103.06232087855072, 0.06297923000951934
146.9766677665181, 93.28898720361101, 0.0471132868731776
120.65814686538124, 86.41575656180174, -0.06403082896861008
83.43138675836441, 102.87530686391904, -0.012299323714725273
109.86731494690528, 92.37000540591258, -0.03980114612685032
120.46163044532739, 105.5401635747912, -0.08529806028186794
125.9508273001637, 100.35246242884647, -0.021411100501508074
119.63255886756869, 81.2976981058758, 0.047274702327757295
97.50148879547103, 99.34733282504013, -0.04944413019218399
77.63258530253992, 98.97818262599766, 0.04971270919136973
109.28208216021469, 103.32680024976452, -0.026201576034720078
107.00267508102161, 100.10121843665314, 0.014088460837664055
138.53841172217386, 121.9506489244903, -0.0048618595954297355
78.9616561081863, 97.9869481823955, 0.01157942376651259
124.4878152855148, 109.67731946196629, 0.005779751241474975
102.19895358885479, 90.41051336829709, 0.0352067698007292
148.0495379949132, 104.80587088731953, -0.024782776996431402
70.10110067019193, 97.24728233369706, 0.06905330342521852
102.12796760420022, 117.83943709516569, 0.027742779641703342
75.4460775266106, 92.58375626524838, -0.02653847414135827
101.93853915934051, 132.17853872354294, 0.06161218723645573
49.6893691798043, 77.22126185833432, 0.007925585613249174
114.72183429068684, 91.38321781854793, -0.006510405027700523
88.89376643926431, 101.02425512098146, -0.039309173324171096
121.0610044267284, 94.25771861234516, 0.07838170634868011
72.37261211418456, 90.39549236495836, 0.009877240652921922
68.85351405834498, 99.76671050729469, 0.05381764536068824
108.69214419790036, 111.06798143792464, 0.11758277284319688
58.636283972258, 91.05906114807993, -0.058911785203675786
110.10230637438126, 106.391219585465, 0.058008124860544824
109.05799720501359, 87.70779943761681, -0.014790317697216136
107.4275998086497, 77.45657615482124, 0.011578488702153934
130.60421330056707, 113.77057836944721, -0.01772782285551167
78.45939994103486, 95.89602748031727, 0.07544689196317217
89.60051277714146, 74.28537406929854, 0.02094940479092701
130.2628420992805, 105.49019678090015, -0.03895061539417388
125.19331013289155, 93.4212439046271, 0.009611031539248341
70.96799030742172, 87.33430136814192, -0.08744548085791898
76.96853060108846, 108.3323585861713, 0.017091265730742846
91.72003880379545, 94.22634744377137, 0.009000366867082462
118.99301226365895, 96.71350736153099, 0.04914547902048937
136.18430279003735, 115.0331126486448, 0.07991432625914119
95.36092109254932, 103.06236088164086, -0.025093872909831217
126.44827352141796, 101.82773090590126, 0.05990366298949032
141.64627696476478, 104.4806332704964, 0.056781988439687285
119.02244171708213, 114.95705154684738, -0.054859988446137146
69.70444241504973, 90.42936222682668, 0.057237124277664135
107.25884197924927, 81.89943541431032, 0.005166125015096173
150.0299406065477, 110.9371838523131, 0.05504516399815536
102.7509142325126, 99.87890886427124, 0.013545900755266843
113.8559685087188, 110.47874834455018, -0.03662838734498224
69.6671443384027, 92.5636561354739, -0.01680836328404592
141.85857268683887, 88.4884111630565, -0.0023284598274528824
88.57822017168174, 98.77502105336681, -0.015759251232292295
83.67072048855937, 79.83646466682814, 0.010074978028724936
123.13138247286547, 92.34190704786555, -0.10049162806760746
50.7622115861796, 108.17706057941348, -0.00029225855600162684
132.0267740307841, 107.89920939667107, 0.017468414454975073
70.05163304597978, 92.78767492042289, -0.04439705354422364
57.46742522837309, 116.16888610442643, -0.15688353578661737
95.74706822588904, 107.65314180885116, -0.08307987303665315
104.36764229887216, 112.49918237638477, 0.0902257271391578
162.87176098776752, 114.19771062896271, 0.12767647561142478
128.84004349610206, 95.67743886245714, -0.0264605777731391
105.12842298888839, 105.2095596071527, -0.0663458011396775
116.42503054115221, 95.48103846680307, 0.015128197334803403
94.63777919051282, 98.67658559940591, -0.013636543007059
109.88910615062892, 93.4326391236033, 0.01874902271822704
128.1119917373848, 93.94977243389232, 0.08341549801381032
122.09594004272545, 92.68107973452757, -0.03783038120213969
101.81733379020484, 95.10801085022025, -0.09758050156685627
91.20919661632519, 97.96825484838615, -0.019799735475145755
98.51762526662309, 113.33625593303861, 0.004434725077707576
91.08801864681291, 84.12415076181485, -0.0396072429656025
169.6775723521252, 106.07213624343511, 0.03252116206389986
116.649372081538, 89.79371640525436, -0.047206387870555255
94.68233735375992, 101.5863136923528, -0.030627264249447523
167.6487334611719, 103.32121368302303, -0.0027643807898142456
95.05960490665154, 115.964110082057, -0.021228884238634192
119.85865433951852, 101.03478291507889, 0.02998593084531887
104.19901799110743, 110.51318851797036, -0.05981488532256915
115.16292240049579, 71.00519738976757, 0.07149399375701047
103.45406680422933, 91.22994750455469, 0.07834383292301894
104.43839752480177, 102.10846886567444, 0.05790052149886807
72.71674521119601, 116.16068322032707, -0.03262214025386134
67.61698376597954, 85.43191607801246, -0.024860361602440643
119.72439983013338, 86.91521819325915, -0.003825629309681039
110.2013362192714, 97.04003466265078, 0.08656883706029928
100.54817657675112, 91.15098029241354, 0.056328227414848664
94.06279434115766, 119.27964557434652, 0.05050308882927124
105.02754001142802, 107.31910684906174, -0.013860356263956592
131.73311653229152, 84.04963191409527, 0.005166227963244625
121.41753570577546, 97.79714811093935, -0.030822190249106325
29.73096481887029, 104.49597633770448, 0.060490662775595186
126.87971183372342, 112.59248513328563, 0.0882403990197235
38.68619632917051, 108.81283536992687, 0.05160969412898392
94.74092298407652, 90.00830440208793, 0.07039603553877581
83.90439129974018, 115.67184733125058, 0.015289963798735484
73.0285841982308, 87.43692444151647, -0.012123542401563573
139.90136995991531, 103.86710478428103, 0.007155892118014984
56.58096173613985, 77.5493066672413, -0.039073323163091145
111.86471614367115, 107.22199051784048, 0.030866989272410307
116.77794020471995, 108.01658197959708, 0.04607313963578552
67.79451354969086, 97.04022308465682, -0.06827649795441594
85.45477620549596, 112.27966960473293, 0.047133472101476004
129.63296793217876, 96.09579183984098, 0.00960928823173489
101.40293040950054, 98.87987140101701, -0.037310801978254635
45.81196564256913, 111.44850448387496, -0.07321260417988261
100.25770821210729, 88.37238697064495, 0.03611184163521102
155.3946056001561, 94.22293318894458, 0.03050931488529156
100.97123924059949, 99.0232049293237, -0.04911381640527901
117.04898127298426, 93.89137557184233, 0.027886880006665338
126.57732573838777, 97.83426069613861, -0.037799197161998754
54.99178412958254, 111.32478798801763, 0.04699074737465084
114.14464391098024, 117.33114388174748, -0.006004796259007547
96.20944037118454, 114.89014519577688, -0.00256707776025107
123.45662900298385, 93.56788137461672, 0.07949978589182553
127.10379247273562, 110.42296722970919, -0.0100067738384322
84.88813781888747, 101.53615172366747, 0.02126199364962475
38.645509396771246, 92.7350611041778, -0.06984743936973908
91.63520800884946, 100.9586581637386, 0.035366964161065224
99.75689164237687, 86.28394233485207, -0.04964678465206651
92.32224996849072, 92.96708528019634, 0.011754290609231076
63.407375365215884, 110.00609546126631, 0.04410592363072058
90.20335217846633, 105.83551777216255, 0.06502478101909852
90.0303086791593, 111.48050747140553, -0.05799887405130251
79.8275742483097, 115.89289010849974, 0.03530999555356345
102.70290256496557, 92.36520551503872, 0.057557124325737924
107.13670774552396, 98.29785877101307, 0.010558427951131237
64.79846909931774, 96.69406110646256, -0.004683882260185659
94.95037621302276, 80.75350896036335, -0.005638447687758234
94.21614518831672, 85.25437041580804, -0.0643953379148368
75.19793203384677, 89.84798212517188, 0.011334858247235235
145.58647332717962, 95.0415844887403, -0.024990331230079713
126.33272386486394, 83.86292646235643, -0.09139486760494708
57.6486796039618, 109.1989386923821, -0.024167058989688125
111.10746587573117, 95.64212369770874, -0.09960026487627564
103.45944008672565, 101.56411278702983, 0.017614287615776793
127.36418873191373, 113.94174213453908, -0.12272859388195463
106.69397741911314, 114.1687864186918, -0.10044724811642554
86.29302820418803, 93.83903434262808, -0.14766987662404887
132.44916335088564, 108.84073386936755, 0.06938850497954552
106.32454246785962, 111.32957764786434, 0.008402556346276787
64.1022344245948, 100.02246335217284, -0.03349571749681595
65.90815501301944, 100.39075420529727, -0.0002407762533557444
123.15975577279605, 74.759716768594, -0.02346507197936539
57.442562003829664, 105.34705867621264, 0.033160080563522286
83.43297331311405, 121.90717325461002, 0.004389943050233849
107.6408133657869, 110.45646122944062, 0.04376265539262606
85.22310447457637, 97.07803640367887, -0.04865034114753092
98.21852207494764, 87.89694408015258, -0.10775642922480964
84.78103025052869, 103.55303413008221, 0.07520338371221169
116.12059645879309, 91.82409063090465, 0.022808316753226046
86.40404990819712, 97.56843969316726, -0.0806422827561874
128.46531280559952, 91.91971862274244, 0.008205103481250385
110.22120729773799, 119.92331210245912, -0.009269922724489123
110.49898899460266, 87.36430720504558, -0.009872872868060895
101.43578413997427, 106.7362505749038, 0.028173128101806746
115.015115304939, 90.53744284497749, -0.018368698971131223
99.9766908386845, 99.75072193616991, 0.027810573899959917
92.8733327848383, 90.06995341321277, 0.037881487291812455
98.64651844223009, 126.09594076954684, -0.12524097277474702
107.83336672470418, 111.22794641514326, 0.03620044786536033
123.27543874370078, 98.19637142700489, 0.07981484136747706
134.35303829608776, 88.47691686291269, -0.026211806436291292
134.0950996708384, 115.28530349242861, -0.04933852196528201
114.73227899697179, 109.80306084950234, -0.04511968338206242
95.70183095040997, 109.51268596652304, -0.03165041968675084
109.13705247812103, 108.36241139176506, 0.012365532446679562
112.31855840738149, 93.34648886955547, 0.031860989872158685
95.988154848828, 102.2331129631995, -0.07017567775322518
113.41057491744584, 88.27002270014877, -0.0019498895788210198
28.07858530650094, 78.88905200726859, 0.07584336153529522
106.00596618024962, 98.94548766180662, -0.02450527708565199
87.22222356572297, 94.09099969185495, 0.030121608947798
69.63075728855972, 107.46821487313996, 0.00036469377946107086
118.47993009829881, 88.58921657969749, 0.06794636317970264
110.56077065620994, 119.07718486821545, -0.04158138518441724
100.41422403166212, 104.0490447581662, 0.01873329904230079
91.34296768507448, 100.97507918950281, -0.03147637590914465
144.71947732096538, 122.29329112312966, 0.06038838835622869
82.42170459803273, 100.00057618691123, -0.002555233439678265
77.40886827695991, 86.22872120552553, -0.07593956206824025
123.61026050363091, 92.66736285772208, 0.0484713648470547
141.08471994680275, 104.93148936401359, 0.07739721049440505
108.56704145946019, 104.54392144240101, -0.0373569460872648
78.16678227388954, 96.2195453093715, 0.05402888873924142
117.10886477016784, 89.3692820858604, -0.013045042559985091
69.76188330402076, 98.71455869711578, 0.009576541086730055
122.98730027411787, 105.67690388044304, 0.010851626854926464
129.71261367482225, 87.64627520397967, -0.0038296077751072224
101.2223225372388, 117.33477045130584, -0.0035203351863418507
86.82914581072757, 93.27340001185814, -0.03627835970574641
124.83373279201686, 96.86691732715303, 0.030692416330977135
87.34382582587953, 83.55384447823403, -0.07264466822234193
72.65724730025768, 111.61284930159856, 0.00984976234118337
113.26554065824776, 116.37997526410058, -0.021568357236810075
120.43840044215861, 97.06174253360177, 0.05106219282728206
80.35110110371028, 118.49767788224976, 0.011860800952591153
69.71120926861381, 100.34069364223488, -0.015938606977221225
134.73698322193405, 72.81213270552188, -0.018329423761844914
72.61597225422838, 106.81362328610895, 0.045878993367584726
