-99.14301949435338, -10.095550568108862, -3.1846660358098866
-92.14306691242567, -10.055478478515228, 9.280791492055533
-103.29078907964725, -9.97690878186714, 22.657550383620237
-88.82137464121608, -10.054813318272737, 35.889571119052405
-100.99737005733328, -10.020625342196572, 45.64402217626615
-71.84929388503392, -9.91921781701219, 22.252002949227954
-98.52108145375375, -9.981521761492493, 59.560043292761605
-105.68364234862932, -10.006305391077907, 34.68461121527468
-70.64887041908162, -9.983761146303515, -6.709296925155005
-120.36302179081139, -10.150998453301446, 0.6080003978184365
-89.78986642766229, -9.949854288564875, 45.54156885269333
-122.0631425927199, -9.977346650021786, -11.335998454473486
-95.45926127678597, -10.006398121409621, 2.487355611207146
-115.38123745521352, -10.02526159351326, 44.694917903795286
-96.13818256753747, -10.041882218845807, 23.224433547929706
-119.62787288502761, -9.990603448892392, 26.76761721494432
-112.9480696663424, -9.980734677615686, 68.48880881258196
-90.20492036523761, -9.904060212166202, 22.11301105623838
-111.54209211829291, -10.021741999584911, 20.83320902064349
-70.47002808643936, -10.003787174184698, 30.93708864533996
-112.3290196858785, -9.9551591348633, 36.60466126932785
-117.32229471920233, -9.985738609723207, 7.204186773589786
-105.00257270633179, -9.982525501047888, -9.956529180774673
-102.70464733596947, -9.985487434526808, 21.941439283847952
-109.4855834118203, -9.954956828720434, 20.93692101477845
-115.50871058965086, -9.969667989699754, -2.8218125015718023
-123.71175787583208, -10.009071170936545, 97.57337741814226
-98.38909274538969, -10.00898596406695, 69.78934648127871
-92.5585433741321, -9.94947656431179, -3.4497095210086464
-115.39549454286073, -10.042412127937231, -0.8489660834460082
-100.66427564870482, -10.021386268331517, -1.4684725565248478
-77.42445746185983, -10.035025285092875, 63.706820960794616
-85.52802631373021, -9.904063156333896, -18.208433152726812
-78.48878095995809, -9.973494020171756, 59.11532089834849
-53.088517819792244, -10.028967767041369, 39.652365841429145
-120.14213630104624, -9.954135131840141, 33.99458147460302
-94.78596682370694, -9.9379156267046, 50.542141729475986
-62.4394441566987, -10.056256232167058, -9.082450137395426
-113.70510923041948, -10.00092248732373, 17.986307931500853
-75.36375328449549, -10.025196692064213, -8.403557846516474
-114.43634242512664, -10.030760414127348, 36.12275873376083
-99.71191293287491, -10.012466088469033, -0.06455211299782349
-102.42419850679723, -10.03763492610063, 51.557978670009966
-97.04907226583482, -9.94344605729717, 1.6555780462649885
-127.08204471184058, -10.02575601495824, 110.85942155912674
-106.4209841463068, -9.996995029292123, 22.921503461159478
-69.03405147151491, -10.087485607503373, 35.47799788555618
-105.55550462179055, -10.022116255308905, 84.99143086951096
-103.78621913455292, -9.974169192177964, 23.15204647927451
-75.45655496405418, -9.996450912696567, 63.357486188867384
-82.59953951550297, -9.901049653297786, 80.2075418398675
-119.75957497522496, -10.028545658838217, -27.965146125400025
-80.96520572632053, -9.958316154412055, -16.387190615015996
-85.86202214546609, -9.949160549566292, -13.477582436603804
-83.27321367623199, -10.016078149396403, 63.35054192620401
-94.21930394275505, -10.000297480002258, 103.90760927756949
-88.86977790203542, -9.990676026648343, 54.97417954051989
-102.5052768395535, -10.026789825060233, -21.672921778191686
-97.08116843028121, -9.978085352555132, 0.4944841684812289
-115.14816940239415, -9.961099248949097, 13.785450574314536
-105.83160157366122, -10.0367456685377, -15.415314565902555
-123.88561911698308, -10.01178100147839, 73.12999986368638
-99.28233213171755, -9.980583652087871, 3.973083833727628
-108.673907826849, -10.056459294147654, 63.15540470449403
-91.97601622952712, -10.034326286349518, 38.007183397670275
-92.38046060848515, -9.916578873594258, 2.5497151505093996
-99.54750783940827, -9.914292140256519, 76.64354933613598
-109.19960065211767, -9.937506033882592, 69.61483244709692
-93.38397454961131, -10.010389210855882, -14.647614398340309
-138.8469321685951, -10.039812203065694, 31.344356323183057
-87.76714997878418, -9.985793717143379, 35.181934270069526
-109.5067428054287, -9.92864877679464, 58.713325765891156
-87.74338156325402, -10.076868210013245, 3.2342352466744515
-98.07326551312741, -9.968352188335839, 30.609177101213035
-131.45317374054088, -10.054780379174844, -0.42334863669733025
-100.38015027952862, -10.04810698544926, 33.355649824656325
-127.48560537983538, -10.068583843404783, 81.4403003133223
-108.95127401575263, -9.959268548699814, -21.280098952389523
-105.36665994990028, -10.052037187053335, 2.883295697298472
-114.76854054466423, -9.98767254969688, 46.423549455253685
-118.42228612707463, -10.000526535965543, 22.58695096400752
-65.01241543233209, -10.013759737125591, 49.67858932969622
-84.5306505443787, -9.935440608154922, 30.150964975874334
-87.99090193224802, -10.074839234234794, -31.96137630353374
-131.06676179303128, -9.954377137468308, 65.95051674570314
-103.52052672543711, -9.969170588650973, 9.349098774570514
-81.13719159578118, -10.025040813126097, 41.97036169314639
-114.91134358990894, -9.981820253741445, 12.47527618401391
-104.67056985816946, -9.993411768550322, 13.983790444588408
-113.1758917856119, -9.936635892648322, 17.074832416855035
-100.67175476512608, -10.03418077392855, 26.265177158683628
-95.66859830060122, -9.946667108939893, 2.065589826022812
-58.42108309326187, -10.008825264370223, 26.460433478771023
-116.88889737226677, -9.940878686605998, -6.86016806567681
-93.17336023654963, -9.936327148359096, -21.79744269233371
-110.75471851765336, -9.98403927524553, 41.706744150289566
-123.04317323759871, -9.97534333256162, 30.464800487075937
-86.36204240406107, -9.940869364887329, 41.351498341606614
-116.90274399585157, -10.035288444337272, -22.014013890281277
-110.75440278099828, -10.096309818460762, -30.040236565131714
-84.72524367862044, -9.938885237836704, 17.905650501815682
-90.71294630172808, -10.066016830980326, 100.65411673292807
-83.81790538060267, -9.940975008173144, 66.03804829280125
-109.05226420752494, -9.944021721611293, 27.763616351695745
-99.89882842346034, -10.008008449167008, 22.968932264756653
-113.74418543891991, -10.030279640940664, 53.36341650093144
-86.85240597501898, -10.007150795377797, 22.259151012850204
-80.5242528736293, -9.962480192308801, 7.078390667729892
-98.77507961162354, -10.071594266475984, 12.805263028167413
-85.07476580361362, -9.987588554466468, 47.765739309580894
-118.17921757172276, -9.903639270473573, -47.44140640215471
-90.79216501169017, -9.937465587243217, 51.9827101347169
-94.73428626671537, -9.90571334282171, 68.80792923989127
-91.58847323014265, -9.915080665952514, 34.73455126562996
-102.85373221340173, -9.989141639195308, 30.026656800892027
-100.37256920239139, -10.066189577683962, -2.4116660032223187
-99.1966227776134, -10.017186383816824, 14.647424809787797
-135.13229708079808, -9.916436068434377, 26.81338673699654
-104.93256421821391, -9.962848790196485, 44.54085881840186
-94.08873543068916, -10.110897931168058, -9.850760623696534
-114.56518096817246, -10.011850926230593, -41.577853819374184
-119.34559406848268, -10.02694428571294, 46.484022968250414
-86.83573729887024, -10.002375552710687, 5.682811544174854
-101.54919520984748, -9.99852710138898, 89.3611919623344
-89.13879372755427, -10.015529563019305, 11.30892176741056
-92.68472520851161, -10.053066519263297, 54.60323522824325
-106.38678391693603, -9.944561403930797, 24.580616071111017
-76.14251300667021, -10.079306068177516, 20.653725386467176
-105.07021885120923, -9.985009381732807, 14.587824679441141
-100.55345670780538, -10.04277768358578, 0.9968902572804978
-115.5420702835687, -10.022363418488492, -2.703197955224816
-115.08931338433278, -9.987464029097325, 22.632238060287822
-92.15085264010823, -10.003197762420205, 34.95964477073243
-113.68389205839175, -10.054085792587712, 32.04097117835657
-80.18905509631293, -9.922733838899001, -37.15730334270117
-97.87693204560823, -10.005732486148956, 33.772957406626304
-120.93897763119253, -9.993654782856316, 0.28882372625279373
-129.6129913190938, -10.034932254024765, 67.14716273521178
-107.94087576909169, -9.941251749075963, 75.01230785330327
-99.77018597392097, -9.999222464532462, 79.97305169535798
-72.15449332232305, -9.960045424856538, -3.7849451953236404
-110.52814736951599, -9.926573756578627, -42.68470542903665
-102.95464560271574, -10.003353041296828, -6.866188281871192
-121.9387198182506, -10.000724707920124, 48.77305213287262
-119.80323536193555, -9.920113688318086, 51.95355438337468
-112.62095620542826, -10.069013302872783, 74.67100111080047
-87.97647509240437, -10.038480451301373, 3.7803079614086705
-99.77929996323353, -10.03456296416776, -3.0420996540785197
-126.42484867109332, -10.019353168407203, 11.628416994921832
-121.1771127362236, -10.010041125846893, 48.76285215243374
-105.56755699529363, -9.979717756153587, 38.828213869924795
-99.20827184537721, -9.997755385347098, 19.199998332453582
-126.83959964621064, -10.017393271269894, 58.63019788800265
-124.97700322578339, -9.92087199991202, 41.71089702514315
-94.59545101948078, -9.983307967751424, -42.52715049917682
-102.54260684051312, -9.99553782582273, -11.269324321852533
-83.43585742970309, -9.98734604492223, 25.680892925807502
-88.0845037466876, -10.079810724489485, -12.214786079662034
-108.8269408454839, -9.99859228302681, 57.15283879350769
-88.29016702190926, -9.937669949015607, -42.79126600849359
-97.13823290877305, -9.92333912468626, 43.60703974677623
-77.8186671224461, -9.94602388109429, -1.451232742522233
-106.91888119630312, -9.968171375892817, 50.19588602938489
-104.65237901489374, -9.996622949574276, -24.678425946100667
-94.19292417829712, -10.039035610050197, -42.99479954451529
-117.27606213311157, -10.077711665582012, 17.033807327633266
-116.35289290300327, -10.049095389989242, 4.29020906545132
-100.36578604069183, -10.065942212570889, 22.24633496314796
-112.07275161162003, -9.99519572019417, 54.129213586631984
-78.55789637182377, -9.95143145938788, 9.889910986009577
-99.3867381357023, -10.035708689333992, 12.621676159999996
-94.18895446283426, -10.064654454398077, 41.18185213977573
-84.13442522042754, -9.91612505896361, 17.856663586129553
-122.536535437723, -10.014030438496212, 37.39226348815362
-105.86421536408, -9.993068218652516, 67.30063915359365
-99.78843056016098, -9.969732162420353, 1.677610475282787
-84.49910209930175, -10.070237934553809, 28.93168870015305
-98.9034608463328, -10.001426584713833, 7.475214739377176
-97.85662819054657, -10.045277885278077, 64.52571755438552
-114.79170352686427, -9.931667118462183, 33.60202044820743
-94.50214502218132, -9.969651824813191, 74.35219258131471
-115.66067839913565, -10.038864889759678, 40.799500412436416
-89.29396008049619, -9.97685431346488, 36.90590532153745
-95.27716842636653, -10.00525642336657, -11.210439006150917
-64.87020794731656, -9.994258470358718, 37.08486377546522
-103.7454149384707, -9.932985404506827, 5.6610670806825
-94.09231945555011, -9.991002774142421, 66.8781505479781
-112.71183041382702, -9.974990205048048, 46.08717279789684
-76.72991746881979, -9.991879831083923, 29.14543641687864
-86.8582909764341, -10.053018219319208, 23.154015993644386
-93.08944910532836, -9.957570205380376, 17.165900651963366
-98.82515752197425, -10.05389285201577, -1.6486065437581487
-93.60500482351082, -10.001838820347404, 3.68147685447191
-110.3993355595487, -10.045589995718938, 47.63995498197201
-85.97934306468593, -9.963626519797346, 45.392811597208265
-85.6866935442731, -9.920034315052975, 2.025903624609903
-106.3098809011355, -9.951702488655641, -57.70157505828517
-87.57740068730877, -9.998431111178649, 31.49285217088453
-89.7341569336794, -9.919198499582947, -15.702468922167398
-93.2938540257131, -10.04513169003087, -26.22873569508458
-136.54397105764696, -9.960293580402167, -13.256997844729767
-108.96151175676368, -9.955717061156852, -3.7523345534937995
-121.21860277555157, -10.00038541033844, -5.753706112308368
-75.12526108233818, -9.97903091661974, 3.5487980972839424
-112.15209128877231, -10.003733740333297, 28.898946737530984
-92.19672001672879, -9.96519253873451, -34.506967828173266
-107.12968162710769, -9.988254503097078, 58.226606594861025
-82.19735350095763, -9.971002076024046, 62.167989043609474
-118.09723725136098, -9.955106244213509, 31.380752632099515
-100.84136550681167, -10.007342579582945, 11.408291861093327
-114.15714640666383, -10.075145174749013, 18.14312334302194
-90.64825502797164, -9.994619419612373, 5.373090648892349
-92.04475652867187, -10.010629888341967, 39.802923752483224
-98.82044330754927, -9.974424291387493, 11.900750952944783
-101.96374262242048, -9.97212667604344, 27.959223975579896
-113.03930314472804, -10.000525820272022, 5.171190557545085
-87.11621381855709, -9.94846697155328, -21.69095260288794
-86.30469569015192, -9.974165160771957, 17.627115168600888
-113.8490686731208, -9.965016489019089, 47.10722686134502
-88.79474052912998, -10.026887484153935, -3.343869295551695
-91.50812961858811, -10.037548051493731, 39.2116099537796
-82.11759445224315, -9.948776457969128, 47.34964406357895
-116.31389436934336, -10.088477836202697, -11.047841591863762
-93.00651006073124, -9.94451158666796, 67.24252900399348
-116.83594417516217, -10.058495326534736, 24.450145021297022
-115.81041988715481, -10.020395405310701, 42.0249308270719
-81.12721255557238, -9.973720305310254, 36.004459040646566
-89.66475358495957, -9.939550085077128, -6.818177786989956
-98.68677404967333, -9.88063284490206, 89.5776645692649
-97.64820220044481, -9.887865209711517, 6.027718873459683
-108.21298399780181, -10.004819727342461, 41.17808898617368
-88.32078534573029, -9.988042520083727, 22.136769795397257
-86.32046058682407, -10.052736764025061, 23.67306166735799
-119.45948638461776, -10.053692144005542, 123.26736561813644
-109.98909018043872, -10.033888373941192, 14.7925570061558
-109.63449247490196, -9.940133806358705, -5.912863273911363
-93.05373733550681, -10.003470032148561, 12.506883548715862
-128.86626787986506, -9.966179737920186, -15.68789601092029
-108.16719533276233, -9.989079607687824, -36.82566214423007
-90.71899546804283, -9.883235171741486, 66.63505573898743
-81.80770721938661, -10.056845834894737, 26.39704645136069
-66.24566862879252, -10.016110532029035, 83.54192622164769
-105.76337523396437, -10.046291100593251, -39.52401278680402
-92.61590013794203, -10.01991744094703, 25.831795440727717
-111.09355876274019, -10.030703525362952, 1.0025115975752534
-95.90910719845814, -10.05285285739097, 74.19928885263187
-97.37744921604025, -9.998420538445025, -7.618848251473278
-86.03154077121454, -9.984839906455623, -18.903012758759886
-92.84677352445942, -10.12316844297266, 42.84161902842718
-107.88009269361856, -9.986276314697813, 103.07496172899062
-95.87214973123618, -10.00445143599628, 4.338616734794993
-115.15166627483747, -10.103631399547561, 23.091663482836672
-84.53083669264518, -9.985768613258896, 31.6081473699307
-90.01002212415293, -10.000092676824282, -20.66833602388798
-108.64778776062101, -10.007553106507917, -18.153170164259876
-111.34507079100088, -9.96552727629682, 10.744501720699828
-102.11074638209962, -9.989153352337626, 11.857258797285452
-101.3249286949237, -9.978808887215443, -3.182281049101306
-131.88918601929294, -10.013465681210628, -27.294147049090782
-107.00962672489797, -9.990362515854347, 75.64241067506386
-95.96573811864037, -10.011272423559824, -4.926089624349071
-97.51726393860206, -9.991413427145407, -5.747876501703907
-114.04515332309464, -10.05310231705248, 44.553638023712054
-108.47453438769715, -9.989320748990536, 12.724477551463107
-115.46035710017135, -10.017422245485982, 68.6367328678005
-101.78382997065626, -10.095029914705583, 52.26040793564326
-123.27933901115114, -9.948278998665659, 49.02851583059085
-77.61778894533496, -9.973011257839511, 47.40109634604761
-106.19138998562799, -9.970240852151935, 80.6409936685881
-127.60288032668436, -10.005654222066301, 11.631813504615613
-103.63015392236471, -9.965407409749346, 14.109231081150114
-90.74604258936657, -9.984068170078244, -9.767392119586955
-67.59395268983835, -9.966873485045149, 10.01833128778259
-102.44196983698146, -10.100591018124005, 7.406343424762703
-105.5242801311276, -9.997455647944147, 43.62378600953461
-126.59208632084881, -9.906433433839464, 46.24399227644471
-116.52797823234937, -9.956339425964496, 6.935159631525947
-86.0639237038919, -10.046448002875495, 18.601340603060038
-131.9463715581575, -9.971892499914123, 13.9841603922671
-99.00341740583788, -9.902328711847765, -11.104249945106272
-123.84159451356541, -9.991054516556252, -11.052387689888597
-94.17788079534962, -10.01491365178118, 8.762677140582024
-79.32390282746016, -9.987215360198249, 10.808001415457888
-143.183538665743, -9.947856592989732, 45.47786683761977
-115.08164883773293, -9.954775321945062, -22.84375200421259
-109.74160467187225, -9.973057414387519, -5.493391457905126
-99.76956523759993, -10.000988803479581, 66.19386198599028
-117.15916015418658, -10.0570025525767, -47.71957075148437
-119.646730517918, -10.037879501693656, 56.28363083307715
-94.78741560759008, -10.038338534918367, 12.608364271422099
-112.39831158107583, -9.917430567551625, 48.97632604910218
-75.53281060793722, -10.078069682796832, 16.820911984769673
-95.23709491665825, -10.054963462937337, 7.103840493579904
-99.20598890327852, -10.044366963453967, 47.760242244950106
-96.19545143957751, -9.9805038593153, 35.66983015592095
-72.20231977369002, -10.002137240822806, 28.885480796045254
-98.4528472709625, -9.986720861986958, 40.4764571237441
-84.16042473188075, -10.00926367647355, -7.244673949689279
-123.02948223433914, -10.048397031385361, 7.158581830509526
-89.39171799579123, -10.03310763576726, 15.123889010887497
-69.40637513201737, -10.08344074515909, 9.936500357460986
-113.00398136195561, -9.884737851148426, 34.720752224603345
-148.43795735261426, -9.979297102829669, 26.049469186981256
-89.36370494576623, -9.986571865540455, 7.3950671443860845
-98.62208744797984, -9.979920583604889, 8.629365263184866
-117.06444584069592, -10.045698059162461, 6.30177101365169
-99.6344332299015, -9.973414369430692, -9.075926830413678
-106.52019612977155, -10.00713560714343, 8.373636313451993
-113.67616579707182, -9.965518015966655, 37.14884702107264
-101.72087336389119, -10.00336837042568, 57.61664614290297
-98.85928979045906, -10.083107434698656, 92.06495462355151
-88.24880847637678, -10.076373916491459, 43.12349577811742
-110.27617565821265, -9.99974474757901, 49.11422031593085
-100.97436229977838, -9.971328431891248, 18.985977968694222
-78.6609992045801, -9.99605037325204, -14.183051156284165
-96.16214974887018, -10.002476866332554, 54.968663429797466
-104.09287675989202, -9.990442720833645, -13.3480360253522
-93.26099274102504, -10.052594584208661, -1.4899003790912246
-81.14707511581668, -10.010686833381946, 45.08284331822857
-140.8111189081858, -10.01293369550185, 12.531533183082239
-111.99858547565125, -10.099733863364877, 27.213875877716333
-88.86190753406778, -9.904973750263142, -5.082694279671934
-103.73945755561925, -9.914441234107336, 27.837827192169968
-93.91696640904672, -9.961709974648837, 34.81541162122655
-91.53197863011758, -9.944661167682758, 8.896394416911525
-82.00524910639054, -10.000140782869634, 55.01441064784482
-115.92666118837485, -9.917072386013796, 54.999816361026774
-86.14543535458937, -10.06281309216184, 17.976096738701234
-100.71140711723056, -10.001191877402205, -22.187574675088072
-119.21002761276189, -10.042835778318944, 7.485949300654687
-88.62783603213009, -9.997842909477546, 17.14635782757733
-88.19177302505759, -9.923031669699618, -11.59016941436025
-80.05639447220435, -10.045423529333288, -24.741032933557747
-101.31284798624827, -9.931664484635352, 35.13827345219861
-116.26340669231678, -9.981278461590394, 28.435691829546826
-91.46686441332304, -9.996038130388143, -2.8247407769044877
-95.39149242314507, -10.02122750306768, 41.50469841957163
-112.09971516393178, -9.951079953979514, 35.26758112201999
-102.71657313462079, -10.02793151286505, 16.92929009619558
-90.38830118308924, -10.053905771383176, -26.385702185156973
-127.17209988027248, -9.972573435299713, -49.15801578757217
-91.44311979592874, -9.951503951144385, 9.791864754073364
-87.84676094974856, -9.962336627594567, -2.2566713873984483
-108.47243155220951, -9.975621926107463, 2.474135642073559
-94.57264405986942, -9.964026941670626, 3.41502173869938
-108.10044235705487, -10.01647873203445, -34.97509370902124
-87.71124033913243, -9.925418416565012, 36.694138656700844
-118.92769535744863, -10.006159933130336, 2.195672870201097
-118.65063346738926, -9.94386509088998, 12.360762881589709
-95.16827947353683, -9.922948696067456, 33.18221827203087
-114.4196220951321, -10.090898983909096, -14.638738016261058
-74.39619135064035, -9.990601319425377, 31.029523753736626
-121.835695521921, -10.099735564399754, -5.240495993420637
-91.07919165147874, -9.970785926667842, 19.17947148923998
-102.54624761789054, -9.861858438884008, 34.319056528203994
-84.55581265693723, -9.957675236403142, 11.675617375755813
-103.93463670493493, -10.004487527094064, 0.41067210594728465
-97.77824823798029, -9.837400799052768, 9.187875442189418
-93.02457661664516, -9.975373607696698, 35.90210391020075
-110.78608655509844, -10.09586545332992, -43.89573441193561
-92.36278131985347, -10.049382831320637, 28.392340695268068
-89.15345628087472, -10.04269410939422, 7.090767651301496
-114.0622448774521, -9.938568883888639, -9.882045472071173
-107.72027665497808, -9.978471669942328, 29.410944444991046
-145.41009956905427, -9.945390761692316, 9.540886173812321
-106.00075373273232, -10.038090951564524, -34.5881189146601
-108.45265461499143, -9.965083079962275, 23.26253526322111
-96.40315581347436, -10.033491193151185, -11.510646534877022
-84.01666284831434, -9.977067354952293, 45.7144820278714
-117.32988251290959, -10.00248609779063, 6.539541964325775
-128.0995773855485, -9.995901200487433, 1.791541885273503
-86.36522471615575, -10.002016066570663, 20.794135973114948
-112.15278321794125, -10.029376854893933, 1.1973426692632287
-110.3240819439465, -9.989898710952076, 35.05944461758563
-114.89793404843675, -10.036260212854964, 21.766238999055204
-118.19386565096809, -9.954702619779043, -15.67777904363664
-131.11092475052828, -10.0424554679894, 37.495651627682335
-111.17573496788938, -10.034896674501091, 40.844944372491284
-95.88887050621608, -10.022802652511846, 32.418131834797215
-112.99901706965566, -9.947659510572471, -33.43257097986173
-100.99871242881837, -10.046309000340644, 83.1401349992772
-129.27843700396593, -9.9627311596125, 24.91857367966498
-105.68332536476383, -10.082880826505821, -0.3711737457085391
-81.3810680400648, -9.97600173909114, 54.04158775317749
-116.74600309481711, -10.032821403166617, -0.4908537402547992
-82.52388466085522, -9.957390974361118, 39.30256931727317
-95.04051523792492, -9.987458458213954, 41.213824749069346
-120.66088288242618, -10.05621890322848, 47.965254804813796
-99.0723778583331, -9.994308864047277, 45.790007657324885
-103.81386088664367, -9.968925156816695, 56.99865771786405
-109.33329973503504, -10.115572417124083, 33.488786783965296
-105.57875623608444, -9.908887189247512, 36.79841717402394
-98.20542279517888, -9.886549236930897, -13.359047958360819
-103.09978038023311, -9.94061128305437, 83.0417870249236
-102.62086696799915, -10.025135974736337, 75.53671847461086
-88.11053751358361, -9.946910401515115, -25.4295557069643
-121.42221304638102, -10.01595051607891, -5.283274678700117
-96.489003191081, -9.999366701540557, 73.68652037022217
-111.18712007340868, -10.012458863424406, -12.030488247496585
-96.79425174162161, -9.99084773074208, 24.750066646330374
-95.794683414829, -10.093468139253812, -9.158204953461457
-99.23686611633329, -10.018703798682527, 74.37235293261303
-86.37375338529014, -10.019068489573042, -41.41626775329649
-108.01953036557519, -9.95284994430991, -1.6829531576090275
-122.25823093955829, -9.97191056758877, 27.04567316451102
-87.74422772308598, -10.084553222158313, 14.89067566834536
-93.66469505312485, -10.005840587533331, 10.68026591555314
-94.61194054546904, -9.999922303014875, 12.607227252588325
-117.46391955681611, -9.993836534969235, -9.908528728330747
-64.67057108487927, -9.938154231746836, 73.51415522688606
-88.0785908633547, -10.00103757938532, 24.931308326128907
-77.5372739852043, -10.024341594947195, 11.467005620854687
-78.22271032405061, -10.050686925254077, -8.141908886634823
-92.11276828108339, -10.051636908002742, -15.0330030838333
-94.92062034557968, -10.031090581303873, -11.377010631119653
-120.85749455668743, -10.01931179040062, 35.90134699818089
-85.4579489347465, -9.960659277951988, 62.88305933282344
-71.28217984500715, -10.063268443677735, 50.640286569039176
-90.64685282535237, -10.008020898726947, 18.150399603548124
-103.28818037904864, -10.023929613913037, 18.198353336837307
-91.30341311983909, -9.88886669157966, 40.0592650215532
-102.13548958169848, -10.022379501501515, 33.70406127393828
-104.35344006590253, -10.006263636112607, 7.128246072619321
-96.41339790751834, -9.941876474556905, 38.48282842344912
-104.79001306869445, -9.952400010501243, -37.68271385856956
-97.17613849936485, -9.944803313516264, 24.673562181845377
-87.52010472272303, -9.92623569914367, 43.07553778466449
-86.31124498067153, -9.966017615117723, 81.58684766435442
-113.23721308543006, -10.048596236906217, 22.4313590176968
-116.02897718751584, -9.973845501104249, 12.984427703048457
-89.87915402397896, -9.98168032768752, -20.225514359966084
-116.59799646168277, -9.91777502503721, -21.66689454017044
-119.87742015055642, -9.960131511874492, 20.66936055053297
-113.9408537585265, -10.050097665958418, 4.126402216472249
-127.46892906295349, -9.963497686633849, 17.33929762435924
-124.70905455064118, -10.024761600309688, 48.14732064643975
-107.75533927219942, -10.019414700354341, 12.024190551560192
-107.38151205455881, -10.068179406325394, 10.059218887894001
-80.98493437723553, -10.013809022008791, 58.678321958312054
-93.72634230843157, -10.05891184177402, 12.025497455330491
-98.32324586673234, -9.890524289759096, 33.761425207437334
-90.07491808511324, -9.981487357268614, 15.99853694120445
-110.3446700168507, -10.014562230022818, 12.094187141472489
-105.64360070415563, -9.996710798280333, 10.092582032605975
-102.99504554602836, -9.99338379760226, 68.18748258057718
-94.06481926405483, -9.984289039044311, -6.705505224455802
-113.73433563825411, -9.977073045033023, 89.77222281297647
-80.25957202054892, -10.051426760116819, -4.4976539502147865
-100.03349236156113, -9.990275000361365, 76.66581317061056
-100.6808601973847, -10.060043833594342, 66.73226600572303
-103.43870436427373, -10.015758111817693, 7.70161957404882
-94.55773581444431, -9.90347224324201, 1.8303183425486225
-82.08500724189668, -10.042698516081337, 13.431021958781475
-115.67540668483991, -10.023224027207721, 35.659654574831656
-90.507722883117, -10.025097612325949, -27.04207147079252
-102.72141062568362, -9.969502064166575, 62.01505778140248
-103.69792652427834, -10.072188611105627, 44.90827648618993
-84.90808351351362, -9.985364249568429, 38.54934547376237
-94.12797759940493, -10.101942964935247, -1.968363202108982
-78.83868902127526, -10.059301890458, 17.460336262338082
-82.96855131886161, -10.067839679136767, -17.36086490614425
-95.42296499207745, -9.936695284526971, 41.848156735356056
-118.76354824717727, -9.942650040353737, -27.2644937036874
-107.90929936536506, -9.942649792568917, 29.172442796039995
-91.3420709827062, -10.077190291113146, 29.4248202788578
-93.71659676146652, -9.96831293911443, 10.493665084808631
-88.31586297347512, -9.97651058846457, 53.59871974320619
-119.56253774438616, -9.88537091671581, 38.97660751259047
-98.43650511625599, -10.017105573806608, 56.84125840469575
-90.71799002515463, -10.037100447576597, 7.129226671957333
-82.72504809948722, -10.069690546901302, -60.65627491410643
-100.98899636113927, -10.082104429758624, -2.774729355750388
-108.40125808993997, -10.00075833723807, -52.21238099144192
-103.41589762116747, -9.976275650665672, 31.217488746513325
-57.197384637657954, -9.965228286553653, -14.580427995155077
-105.043929424425, -9.984953970998864, 57.950639139063384
-88.16501624514538, -9.976097567053154, 47.422319686140455
-92.49154821680575, -10.07144636167148, 20.26914386376662
-95.55447639024474, -9.966284618671088, -43.457991711637916
-102.6269821301851, -10.017296848924872, 19.92474414101469
-117.6019355731632, -10.055983194124533, 10.469697314756148
-131.70356616089967, -9.977372341891762, 42.60563651237477
-77.18418572106178, -10.02313016399098, -12.28882447247657
-65.5742885221538, -9.995131073938488, 15.776084076755124
-68.8458570309842, -10.027689932596429, 47.803371717917955
-97.95725394145563, -10.006139525265825, -12.631406816386487
-120.71088090705135, -10.048908150810114, 7.241109367274433
-101.2284527738645, -10.01259029576729, -24.803500216531155
-101.0655946196206, -9.972871230321712, 29.084228073594666
-87.10510612291677, -9.966737832121687, 33.607745479987
-93.4625426964801, -9.97002817822164, 26.333278318735164
-58.74813246036935, -9.996662053853349, 39.92810002423498
-104.8376569334445, -10.051887693151416, 21.162218423979585
-82.00834367917625, -9.918999817888933, -2.5478160105091554
-61.77746586993813, -9.943888599718603, 102.61053270949104
-98.5598333745353, -10.062670091716555, -26.549729210310055
-129.74538684341238, -9.99235235512524, 64.57171808247942
-105.87735834052403, -10.041587667597778, 91.75030141558196
-109.29432484745662, -9.997975545065616, 3.3611090194685467
-104.48752861919047, -9.992552011256043, 23.678486804289555
-99.00690952740446, -10.000182049184545, -18.429920436132683
-118.41023712794714, -9.957360715034799, 21.162918340659505
-97.99675462249928, -10.030039599082091, 1.1426770338615242
-90.97474740896712, -10.01122651827745, 17.99758008530367
-83.07656217098324, -9.99070692722049, 7.5459756781631295
-110.43805514189937, -10.021938000209907, 27.4403780401601
-96.924583288033, -9.931511448110816, -20.714090682924805
-112.67734802364785, -10.019044476218305, 45.40619661680305
-124.05167345540404, -10.016798319661854, 50.63504357152679
-99.36365120398538, -10.030087143460205, 23.29342218700275
-111.88882222171233, -9.964043363234936, 18.876656974356838
-84.08430787843774, -9.948032719754305, 64.1380733866055
-104.42918129399384, -10.097748698181011, 25.77611188312691
-101.07006476830023, -9.919321164022199, 2.3026420890942454
-108.8098217219485, -10.012438281301716, -21.881664523741946
-99.50254159976286, -10.044556459196832, 44.26568984903885
-103.0298150169005, -10.029464279899061, 66.85177507838523
-93.23975908242339, -9.976584823065478, 38.4596503350074
-99.63941936764398, -10.055737642918535, -26.474946494323625
-89.22661150345188, -9.967240938441874, 19.9725409775553
-95.93113820100899, -10.034457361950501, 9.431601735944897
-128.86688065025297, -10.036740791890356, 49.99260535121998
-111.99648958671031, -9.960061284314252, 43.24806744781472
-91.802320030629, -10.036937100309789, 2.9147264376610593
-70.07937257441355, -10.031635835031107, -22.133937642259937
-90.57827307851034, -9.979770387709586, -5.400805771444126
-98.86820154388838, -10.038125394232093, 15.14156126162688
-76.56543435115134, -9.961349740465677, -3.7574674848453604
-103.21062253428683, -9.97664406442385, 37.382992989934536
-104.69239063377653, -10.017808541612677, 43.00137299266295
-116.49715055369671, -9.994427723149908, 19.09538315923553
-90.66688085300665, -10.035688127370307, 29.66227150654088
-106.77509028089308, -9.993185217339716, 34.67336686033528
-134.94078736040512, -10.067939129807112, 17.71868142440983
-116.12352191169059, -9.977424798363396, 24.671662947068853
-98.03826364344846, -10.036704259309374, 5.9795510214801695
-102.3878853086603, -10.023377921265062, 18.634701377668502
-100.70730599702797, -10.0460222182902, 33.54298429821625
-116.51656143028879, -10.008312737459349, 60.8830218025232
-110.62206108962577, -9.970708163948297, 60.875170998262355
-106.16190265513383, -10.050096961852802, 12.343385435186775
-98.4748814249404, -9.972499462320819, 20.23921292521094
-99.0371263203833, -9.963674517359186, -24.852891094249102
-81.13626248845526, -9.987848210627854, 13.86950983310893
-97.26800805691418, -10.008217826779536, 39.906436768045275
-95.93491760290435, -10.020209080786932, 23.81149109378112
-111.60847930753347, -9.946415251563101, 32.16774128394662
-90.15967606368433, -10.026124438837224, 81.56582049826326
-104.21133381402154, -9.961667266557233, 15.819366636336486
-102.10678427634844, -9.993036418836024, 12.019197235764599
-94.13783249879107, -9.998596615767049, 2.979849041307446
-107.91411586472464, -10.017926943920575, 8.404917336376052
-95.3069566805658, -10.063237728858477, 25.495519401377607
-102.26050879102631, -9.951840512905806, 47.67221996355585
-132.47801406054506, -9.985746694340014, 63.86506784257209
-96.26260093241831, -9.969229072728972, 37.85511414896895
-92.71741191941291, -9.941727408812332, 22.440709476687967
-76.70479817986013, -10.05235321835402, 47.67971227638124
-81.01472370116147, -10.008343550251054, 50.121287994219756
-48.88085919281796, -10.029909896686561, 45.92284157345095
-82.43265312198847, -10.038279118256414, 39.71946367315551
-124.20034447067482, -10.002529628043053, 32.36429643733679
-110.3763636904905, -10.03107800915828, -51.773233610567914
-97.93631963728714, -10.01049468574512, 11.11512941184384
-118.66333443558497, -9.991680173462212, -16.145770950005883
-86.24643755670711, -10.028519796623707, 14.560016232367769
-107.66738709227388, -10.004738898113956, -40.96246171925255
-105.40611310333887, -10.005211734758674, 1.2563537372143294
-100.30567632951464, -9.972383004632682, -3.077469448728234
-112.02915799224637, -10.012289370142113, 61.43132664555964
-143.93105850179876, -10.096823703631152, 8.100481725698573
-85.07270151538576, -10.044839944191722, -22.65040827409372
-91.86817480622805, -9.957898948750472, 23.755928048021076
-126.72942703522577, -9.97119469906336, 27.4057707280088
-108.26423404830419, -10.029710047126404, -3.211974889345697
-125.67736329458015, -9.979244201793774, 30.00487522360031
-117.22249815504892, -9.971068590534935, 26.782270275703624
-118.25941458570344, -9.943287432337097, 49.484888478937364
-102.58301260677538, -9.979745077440903, 18.854889350606367
-110.81858377154278, -9.919845237276368, 35.83498562256443
-93.6018008134386, -10.08327209353585, -24.199272366844966
-119.88620875535301, -9.960889864792195, -34.36526868619993
-91.45562351519908, -10.050213680693489, 22.87050834593184
-119.30903218697577, -9.955026315699477, 38.9784967198908
-93.46984777060159, -10.011123306141915, 45.22609067204594
-105.69787273569645, -9.996302650396192, 52.59494952204521
-99.96599587322322, -9.907501770329093, 13.378670555425439
-106.11579700905702, -10.035472368925047, 14.940034752337546
-110.73151717983288, -10.015348722525971, 1.3078167593805894
-95.96017235571927, -10.102523056039448, 30.519062880040995
-78.69541241528464, -10.02475262224155, -13.611787833770322
-89.03522837561444, -10.013888687773356, -2.451752427467106
-82.58584692412278, -9.95961829143087, 67.16837120885963
-113.1157999263847, -9.902522119291588, 9.756586185848445
-111.30547504296979, -10.019869564055506, 28.209937401464515
-88.54633902188402, -9.978174136702105, 27.83687530163474
-120.39667044931328, -10.02706701459294, 11.721442052339048
-91.09035472305196, -9.993978960660856, 31.018906090919273
-92.4576810420983, -9.964563586618068, 20.03395776180439
-99.39840674886749, -9.944470799670937, -21.472059737468243
-100.67381129783402, -10.092076999474934, 6.501000991845618
-82.54148948059299, -9.954774151826692, 5.061089795692187
-95.1306021865711, -9.988422873174777, 13.23883948198948
-109.5522013360485, -10.003540634998311, 36.173000347488696
-87.81577935368084, -9.996965061180642, 66.46533864445075
-67.7547728449791, -10.064254578906777, 6.623660012496682
-98.46656765025662, -9.973763351694979, 19.10060846789639
-118.767533832968, -10.029693997408195, 51.63080613815548
-98.91454524217102, -9.960662627034914, 10.962215684536496
-85.30724196293204, -10.08809031871557, -42.60121380686091
-55.023166419263305, -10.100517125469707, 7.351203994764127
-81.39558279190682, -9.96594564852393, 43.527784486295346
-93.53628899347068, -9.969358349758002, 14.250802985281277
-113.12695174000322, -9.869918684540023, 41.08168334907324
-60.60888584801178, -9.991724399475936, -5.956536114983997
-117.53919847944945, -9.85833025927055, 29.869707004127825
-86.49907777163342, -9.909175004711104, 9.741887022215442
-87.61874246279599, -10.002810579784805, 47.436183851870865
-101.9197712930089, -9.977437823391964, 46.85799639417618
-106.6531555482673, -10.070356118258044, 68.63959682199376
-136.6017098600751, -10.031533865472339, 28.265211898505648
-88.43266255237381, -10.042554550654144, 53.34404858928956
-88.93708059453046, -10.003295066537861, -38.50986871848354
-94.33681066982584, -9.97652584270616, 8.118962369683272
-96.08212556925726, -10.017122947068367, -25.489436748622722
-83.82711507307931, -10.008027464124229, 34.833910318947645
-80.34831745403554, -10.049677501197493, 39.389268391600275
-108.8453745044768, -9.995755149497855, 26.47356958799574
-97.83787760886135, -9.994338503434319, -10.691151713286878
-126.30229430502084, -9.991951556590218, 42.100234198922706
-67.99014066517118, -9.96662786801867, 6.757939832795223
-134.48184330579815, -10.029153297375053, 29.016524843197082
-109.19414868195257, -9.928606018371761, -13.66782083776397
-114.06416634059524, -10.009614449543804, 20.320594832009295
-97.19932761153561, -10.060841701441692, 34.701858853927845
-90.14036244137137, -10.073846533446744, 6.515952547069633
-102.14688477810134, -10.058511181843453, 35.24895147361656
-117.96779293714607, -9.95364195361886, 47.02920027931222
-112.66079846284852, -9.97516490607909, -1.2401728982151
-111.11221553300894, -9.955926647309708, 0.05999259231088416
-110.36688817515048, -10.006557802126725, 41.42572988861123
-91.69780777690997, -10.05104683265737, 4.2018333201219615
-109.38636502971019, -9.952483152095333, 27.969995971730526
-103.2568174398757, -10.014774223041105, 4.680235321967167
-114.2700752993878, -10.071563875060312, 13.43813271776106
-103.88195563208755, -10.05087532020585, 3.4941545921098616
-118.72956526752598, -9.984589572295233, -9.042569869977207
-89.2293436864739, -10.023234820770533, 17.37145656458063
-82.76588118917597, -9.958250282486825, 70.02656363091744
-108.71591302456973, -10.112902137224376, 38.52832722217878
-125.38392093811797, -10.03401585423356, 42.07890543997823
-97.2401785828908, -9.924260733828461, 71.22919368933267
-138.8598358952411, -10.051503448303762, 38.25878003521468
-130.16511126864117, -10.090431994639948, -12.00362040089648
-103.6703950340067, -10.010161890769554, 11.994608292497455
-123.64367914641184, -10.001349850194845, 33.46619774385337
-88.69916728262753, -9.991028969587148, 43.0863319127526
-84.22702119798252, -10.074763563108041, 48.41026893817928
-94.67077289386651, -9.923007418567655, 45.270777089892675
-86.13274316333386, -9.962959708388055, 71.36584378327522
-95.08204540745685, -10.00463035395857, -13.143386502358695
-124.16870508434927, -10.005402773268075, 19.927557566206684
-101.58113385958785, -9.982272095110963, 13.203566269975354
-97.46085788195086, -9.933983132929743, 12.61010718198028
-81.12971513344687, -9.99436728262947, 27.59469803093435
-99.65756844127272, -10.045158101477943, 86.7728842785648
-93.64319076533712, -10.029571028576788, -30.689310665982646
-115.8964949676494, -10.012971324713229, 12.375081142427604
-95.24929673111528, -9.93640563962473, 27.01737527060743
-114.90037528289689, -10.061755938745863, 31.477339954736813
-117.59459753593346, -9.89000196998416, 55.036464306358916
-112.308615525806, -10.004109536905188, 0.3923026476495153
-110.90351755301042, -9.98017518879004, -6.613586494232891
-84.61721401425034, -9.968888570022127, -4.177073518031126
-100.48603552551826, -9.984780506411004, -7.95965448337995
-132.87431557369948, -9.974216374173167, 10.498098098075765
-106.9779467344421, -9.851812263648862, 15.268160330775945
-99.57146111714528, -9.991621948447213, 42.19033273706262
-77.16393568361832, -10.015448398722652, 26.41653813860155
-122.75138041314098, -9.98848805757671, 62.11340298509474
-92.49219319527727, -10.022132452140145, 39.57206183083983
-105.59860686472163, -9.929816519563424, 51.78132279368031
-94.69550012428391, -9.993086921147878, 25.23033143885099
-101.01445108335972, -9.939041311278896, 62.70475160738733
-100.16722132592048, -9.989227959551332, -51.864241780445695
-110.11535200465825, -9.957233862387191, 0.374110789496207
-90.24217503287633, -10.02538559695857, 76.85318526109364
-71.21431245093048, -10.04075340587903, 2.536246327346369
-100.34478981617006, -9.941079203238983, -8.204632393630366
-78.6451846156954, -9.971105713421885, -4.669804811923729
-93.4984675446371, -10.012198676000587, -6.136159375194364
-121.50985752794621, -9.955915116940899, 48.043996359564794
-127.83046405120284, -10.076610310526085, 2.7541270965055986
-84.70214917147516, -9.97747694618455, 17.03183538491312
-96.5598771787645, -9.944532832093891, 31.713729426614393
-130.94535445917975, -9.988282678826815, 57.70998012528417
-88.80530944298332, -10.06613770358177, 21.623245124370406
-127.69199212218065, -9.921692543352894, 18.087741086817772
-91.67834473931251, -9.955868798620694, 21.291211748122766
-111.49947439486286, -10.092297303756025, 60.02966054599217
-107.85706629805536, -9.968078469785562, -6.079538237561074
-91.41069874580427, -10.130983826427501, 6.472403457617046
-107.23554797902494, -9.92803199670022, 31.496600697347233
-92.5240545343677, -9.99468843246765, 6.480029591231244
-95.33159128946991, -9.956488929978018, 32.0298789444824
-88.12721339929641, -9.966558861402893, 64.23851431385117
-101.3520280713838, -9.958248279317276, 84.83086449275673
-93.84595156393242, -10.02909528393256, 36.36987629046632
-73.36329878878574, -10.015298624047615, 32.97261778764482
-83.77000924849646, -10.020621310854748, 51.867625225157234
-80.16917929738624, -10.12218472258036, 35.09598362919742
-109.06705295556206, -10.026129764770664, 0.7921398119264182
-110.89688347777906, -9.990515993698386, 30.693478279391385
-101.75306918022778, -9.954089038455457, 16.89677263283334
-100.87197933046816, -10.065288409376063, -2.953672262115706
-104.88774383483354, -10.016528582929505, 68.8250610606975
-120.45756656790633, -9.98801901651678, 21.945535663816813
-123.62114255846919, -10.047946784870463, 53.30396040658873
-113.69060832513816, -9.984451110774565, -5.731842947637055
-82.38466551735485, -9.975982907454902, 30.060588294997913
-88.94938661785419, -10.057116338959746, 20.79477559272827
-104.7044663488726, -9.966170999788032, 6.762643612074335
-103.2466080480192, -10.037921356534332, 105.57015819920923
-104.75742098978387, -9.96922082753971, 29.528340335208345
-105.95489246516566, -10.044800548125293, -5.371971058514379
-78.7690029548344, -9.938955186301929, 41.22025958044772
-96.01621663191759, -9.989817267912322, 59.17355564696405
-95.92528663308758, -10.031109754589664, 51.51910348225884
-88.38992343648967, -9.978997268773686, 12.906653128330092
-91.86736848230423, -10.03549012214378, -14.152038960172987
-113.65643349653591, -10.004778746749754, 50.44489087275197
-86.5497536923159, -10.03611460069996, 3.990476253984678
-92.22207660514904, -10.041647442111332, 1.925827405520824
-84.61895555300785, -10.098740710457419, 12.623361455563185
-108.1664018143434, -9.927580813243019, 31.030817863021838
-79.42903967089873, -9.98150201630822, 2.478444194288201
-89.37704106460825, -9.995618933731132, 25.527269096013374
-108.79424214517027, -9.984055766888355, 15.278923654542332
-108.97184759481861, -10.051619300712005, 96.08345398325463
-107.21567639004685, -9.994362213848564, 60.311926619301545
-105.18621207207748, -10.030605355083438, 32.77225661065205
-133.0602568448236, -9.958676019471767, -0.9647409955567063
-114.91237116437509, -9.966280905291322, 45.60357335434632
-107.5927457798904, -9.989669421723631, 43.461007223628116
-94.7901166443473, -10.01338967929332, 23.932916790498563
-92.9934452011987, -10.095719655119854, -28.16526164260329
-89.48998216117704, -9.948501735572174, 16.943174209303198
-114.76742333367041, -10.039808002844799, 14.39803577390877
-90.3554559319129, -9.955087468274266, 4.307219562959347
-88.03423271026865, -9.96661824164165, -7.543741711960951
-80.11471546164664, -10.068269975480584, 20.38241300551135
-115.02058322708409, -9.93060754737351, 26.168832200423378
-72.45328392129841, -10.025298802972987, 43.24199876627553
-83.13801163865945, -9.924542776094679, -11.896136550338554
-99.77244104062443, -10.125278308152605, 3.183909354074114
-84.85204580901171, -9.93821755076499, -2.6460583743676978
-84.58215841751537, -10.031570403409113, 11.458746825807717
-114.95770721715071, -9.915948203902193, 5.869804653694011
-88.68961901309207, -9.944548275034428, -31.39631669026096
-120.70812713792102, -9.90595289205549, -5.992827623735913
-102.7711002705707, -10.008814486698958, 31.56082570895971
-106.24058063851733, -9.995209285335958, 32.60236362871944
-105.06861033977326, -10.016683652686702, 31.669738418087988
-82.29331191047466, -9.940149879249459, -1.1926680599176969
-100.77730673318308, -9.939891588047912, -11.926579599202945
-120.30810832927689, -10.00862189013258, 29.12081118934725
-109.58869015449679, -10.038498657660128, 46.63171024786764
-107.31402159814996, -10.041433251056459, 35.437864853677425
-92.18506723532249, -10.125487875027202, 52.849348526590475
-122.02429987663976, -9.924657959783882, -16.980374165075347
-114.27223593317893, -9.988783706418833, -13.681336320904094
-137.09149524771283, -10.077658758575227, 53.45469923672964
-65.25064921670409, -10.02445613985074, -43.957000409259294
-81.5904402374077, -10.030483791100549, 28.30215545733871
-69.50362240290838, -9.977497769699372, -2.7629634667738507
-95.6113922621181, -10.036839076461018, -9.907926030468985
-90.50631267901659, -10.013650429735849, 14.45641271873043
-101.13711138035853, -9.972262835548447, -11.14821987543197
-103.35510877596386, -10.022589823997262, 0.09472880743547307
-103.85465860922943, -10.028583901263007, 12.11456460948965
-88.26182614634445, -10.065324379266183, 4.090369978880808
-79.18255060332658, -9.996964739933613, -25.98935527305487
-78.99061087660579, -9.898537207526664, 74.83485507493471
-75.46054145389894, -9.928159673905606, -4.240084367584522
-93.83646092201195, -9.94877102969733, -21.265894809247072
-91.69283008436524, -9.961629837078354, 34.95193074217543
-84.40794155297894, -10.030299593375656, -5.997197334794979
-103.48932900194912, -10.022375909260713, 47.571066147232784
-107.0121373506137, -9.946679291809653, -44.91402828533893
-79.69442097320318, -10.008290942148824, 32.848948261297146
-109.66073451496929, -9.963939876329615, 31.32137024359504
-60.002766655196424, -9.989317127064602, 41.32841757186103
-93.03835567535526, -10.078246662703654, -18.037944319161767
-82.3889039130835, -9.996684098268986, 37.46692570005975
-109.71404395746002, -10.012895739051407, 62.7623535604706
-99.11841828412534, -9.994752969968498, 46.18576942413993
-106.06581449270935, -10.077945062042193, -0.8202769125931333
-96.33294163753773, -9.990533805606956, 27.685386801376293
-126.08789201877273, -10.036413347286029, 76.1195148347304
-98.10660914118654, -10.044457543579375, 9.054229326148901
-116.26980984522935, -10.106759090229737, 43.76670993629622
-64.37953661440007, -9.939037712185087, -1.7489484076034678
-114.26046669397726, -10.057492578095696, -42.32631090415075
-104.33245068734207, -9.978625370246, 53.58725492488272
-94.58174341899863, -9.87153607435457, 6.927680261546909
-96.54536773565532, -10.017283289759634, 34.907117940179376
-105.81854453700622, -9.976068924920602, 53.60963893362158
-118.39316088245431, -10.02406117018037, 30.545493462113136
-89.14581428000942, -9.968151075734243, -12.230181354028716
-108.82785906949552, -10.022800215485768, -60.01230198787985
